# .PCD v0.7 - Point Cloud Data file format
VERSION 0.7
FIELDS x y z rgb
SIZE 4 4 4 4
TYPE F F F U
COUNT 1 1 1 1
WIDTH 1082
HEIGHT 1
VIEWPOINT 0 0 0 1 0 0 0
POINTS 1082
DATA ascii
0.56926727 -0.23905446 -0.033607211 10394005
0.57465166 -0.23607744 -0.028347557 10394518
0.58152437 -0.2327688 -0.02164495 10394518
0.58764762 -0.22968154 -0.01567018 10591897
0.59376723 -0.22663121 -0.0096997218 10591897
0.57369268 -0.13314083 -0.026992869 9211273
0.57239407 -0.13151325 -0.02820948 9145480
0.57109636 -0.12987641 -0.029424978 9211273
0.56979966 -0.1282303 -0.03063928 9145480
0.56923485 -0.12654321 -0.031146787 9145480
0.56940144 -0.12482214 -0.030948011 9145480
0.56883723 -0.12312815 -0.031454615 9079687
0.569004 -0.12140477 -0.031255577 9013894
0.56917077 -0.11968141 -0.031056536 9013894
0.56860763 -0.11797816 -0.031562135 9145480
0.56877458 -0.11625245 -0.031362783 9079687
0.56894159 -0.11452676 -0.031163473 9013894
0.56983799 -0.11278789 -0.030260326 8882308
0.5700047 -0.11106449 -0.030061347 8948101
0.57017148 -0.10934112 -0.029862307 9013894
0.57033825 -0.10761775 -0.029663244 8948101
0.57050502 -0.10589437 -0.029464204 9013894
0.57067186 -0.10417099 -0.029265182 8948101
0.57083857 -0.10244761 -0.029066101 8948101
0.5710054 -0.10072423 -0.02886712 8882308
0.57117218 -0.099000849 -0.028668057 8948101
0.57206631 -0.097285099 -0.027767602 8750722
0.5722329 -0.095564023 -0.027568849 8750722
0.57239944 -0.093842953 -0.027370052 8750722
0.57183927 -0.092107333 -0.027871851 8750722
0.57055324 -0.090350173 -0.029073516 8882308
0.56999427 -0.088602975 -0.029573997 8750722
0.56870979 -0.086829633 -0.030773709 8750722
0.5674262 -0.085047051 -0.031972311 8882308
0.5646925 -0.083202928 -0.034568436 8882308
0.56123525 -0.081311837 -0.037861433 8882308
0.54942763 -0.075429015 -0.049120594 8882308
0.54742861 -0.073516205 -0.051006448 8882308
0.54615498 -0.071629509 -0.052193135 8947844
0.54705429 -0.069860563 -0.051286533 8947844
0.54722935 -0.068051599 -0.051077608 9013637
0.54812795 -0.066289574 -0.050171789 8948101
0.54830277 -0.064482905 -0.049963191 8948101
0.54920071 -0.062727839 -0.049058195 9079687
0.5493753 -0.060923502 -0.048849784 9079687
0.54954994 -0.059119157 -0.048641391 9145480
0.55044687 -0.057373334 -0.047737505 9145480
0.55062127 -0.05557131 -0.047529381 9211273
0.55079567 -0.053769287 -0.047321215 9342859
0.55097008 -0.051967245 -0.047113173 9342859
0.55114442 -0.05016521 -0.046905026 9342859
0.55204016 -0.04843327 -0.046002723 9342859
0.55293536 -0.046705965 -0.045100871 9408652
0.55310935 -0.044908565 -0.044893343 9408652
0.55328327 -0.04311116 -0.044685729 9474445
0.5534572 -0.041313756 -0.044478118 9408652
0.55363119 -0.039516348 -0.044270549 9474445
0.55452502 -0.037802912 -0.043370381 9540238
0.55469871 -0.036007814 -0.043163098 9540238
0.55487251 -0.034212731 -0.042955693 9671822
0.55576539 -0.032508541 -0.042056657 9671822
0.5559389 -0.030715764 -0.041849557 9671822
0.55611241 -0.028922984 -0.041642502 9671822
0.55700451 -0.027228054 -0.04074458 9671822
0.55789608 -0.025537753 -0.039847065 9671822
0.55878735 -0.023852093 -0.038950041 9671822
0.5589602 -0.022066243 -0.038743787 9803408
0.55985063 -0.020387508 -0.037847649 9803408
0.56002325 -0.018603982 -0.037641682 9869201
0.56091315 -0.016932186 -0.036746345 9934994
0.56108552 -0.015150974 -0.036540583 9934994
0.5612579 -0.013369769 -0.036334883 10000787
0.56143028 -0.011588554 -0.036129143 10000787
0.56088626 -0.0096863667 -0.036611766 10066580
0.56034279 -0.0077795442 -0.037093744 10000787
0.55979967 -0.0058680912 -0.037575342 9934994
0.55925709 -0.0039520301 -0.038056273 10132373
0.55871493 -0.002031327 -0.038536675 10066580
0.55817318 -0.00010600046 -0.03901656 10066580
0.55834699 0.0016890836 -0.038809236 10066580
0.55852062 0.0034841821 -0.038601976 10132373
0.55869442 0.0052792639 -0.038394567 10132373
0.55815375 0.0072161532 -0.038873225 10132373
0.55832773 0.0090135541 -0.038665593 10198166
0.5585016 0.010810961 -0.038458023 10198166
0.55867559 0.012608369 -0.038250409 10198166
0.55813605 0.014556831 -0.038727667 10198166
0.55831021 0.016356543 -0.038519807 10198166
0.55777138 0.018311948 -0.038996264 10198166
0.5572331 0.02027197 -0.03947214 10198166
0.55598259 0.022396926 -0.040631268 10198166
0.55615765 0.024205899 -0.040422361 10198166
0.55633265 0.026014872 -0.040213455 10198420
0.55579591 0.027991088 -0.040687442 10330006
0.55525953 0.029971911 -0.041160963 10395799
0.55543506 0.031785525 -0.04095152 10395799
0.55489939 0.033773307 -0.041424129 10330006
0.55630529 0.048300587 -0.039746303 10395545
0.556481 0.050116498 -0.039536554 10395545
0.55807465 0.051537767 -0.03796792 10527131
0.55895865 0.053149428 -0.037079554 10527131
0.55984229 0.054756448 -0.036191657 10527131
0.56143367 0.056154583 -0.034625612 10658460
0.56231612 0.05775005 -0.033739049 10592667
0.56319815 0.059340872 -0.032853022 10592667
0.56478727 0.060715891 -0.031289734 10526874
0.56566817 0.062295143 -0.030405087 10592667
0.56725585 0.063653961 -0.028843561 10592667
0.56813556 0.065221667 -0.027960269 10658460
0.56901491 0.066784739 -0.027077448 10592667
0.56918728 0.068565942 -0.026871707 10592667
0.56935966 0.070347168 -0.026665984 10592667
0.56953204 0.072128363 -0.026460329 10658460
0.56970441 0.073909596 -0.026254542 10658460
0.56987679 0.075690769 -0.026048826 10658460
0.57075447 0.077237673 -0.025167916 10658460
0.56951642 0.079489857 -0.026312387 10724253
0.56898409 0.081512332 -0.026780969 10855839
0.56774747 0.083780713 -0.027923614 10724253
0.56721628 0.085814767 -0.02839092 10724253
0.56598133 0.088099323 -0.029531589 10724253
0.56615525 0.089896709 -0.029324001 10724253
0.56632918 0.091694131 -0.029116407 10724253
0.56650311 0.093491532 -0.028908797 10724253
0.56667703 0.095288932 -0.028701184 10658460
0.56614786 0.09734384 -0.02916621 10724253
0.56632203 0.099143535 -0.028958354 10855839
0.56649619 0.10094324 -0.028750455 10724253
0.56596786 0.10300738 -0.029214352 10724253
0.56614226 0.1048094 -0.029006207 10658460
0.56631666 0.10661143 -0.028798124 10658460
0.56578928 0.1086848 -0.029260891 10658460
0.56456077 0.11103649 -0.03039385 10592667
0.56403446 0.1131214 -0.030855326 10592667
0.56350863 0.11521098 -0.031316306 10592667
0.56298327 0.11730517 -0.031776626 10658460
0.56315899 0.11912107 -0.031566877 10658460
0.56263429 0.1212222 -0.0320265 10658460
0.56211007 0.12332796 -0.032485634 10658460
0.56158614 0.12543835 -0.032944083 10527131
0.56106287 0.12755337 -0.033402123 10527131
0.56123942 0.12937854 -0.033191368 10658717
0.56071675 0.13150047 -0.033648483 10658717
0.5608936 0.13332792 -0.033437423 10658717
0.5610705 0.13515541 -0.033226378 10790303
0.56054866 0.13728663 -0.033682548 10592924
0.56002724 0.13942248 -0.034138121 10592924
0.56020457 0.14125457 -0.033926547 10592924
0.55968392 0.14339733 -0.034381319 10790303
0.55986148 0.14523178 -0.034169447 10658717
0.55934143 0.14738142 -0.034623425 10658717
0.55951917 0.14921819 -0.034411334 10790305
0.55969691 0.15105492 -0.034199201 10790305
0.55987465 0.15289167 -0.033987045 10790305
0.56005239 0.15472838 -0.033774912 10658717
0.56092662 0.15623829 -0.032898255 10658717
0.56110412 0.15807267 -0.032686371 10790303
0.56128168 0.15990706 -0.032474529 10856096
0.56145924 0.16174151 -0.032262661 10790303
0.56233221 0.16323982 -0.031387363 10790303
0.56250948 0.16507189 -0.031175766 10856096
0.5626868 0.166904 -0.030964168 10856096
0.56286412 0.16873613 -0.030752566 10790303
0.56373614 0.17022285 -0.029878603 10658719
0.56321871 0.17240033 -0.030329369 10790305
0.56339604 0.17423242 -0.030117793 10790305
0.5635733 0.17606452 -0.029906174 10790305
0.56444436 0.177542 -0.029033236 10856098
0.56462151 0.1793718 -0.028821884 10790305
0.56410521 0.18156083 -0.029271377 10790305
0.56428254 0.18339294 -0.029059736 10856098
0.56445986 0.18522504 -0.028848138 10856098
0.56394458 0.18742332 -0.02929654 10856098
0.56273735 0.18999472 -0.030404082 10856098
0.56222308 0.19220458 -0.030851128 10856098
0.56170934 0.19441906 -0.031297557 10856098
0.56119609 0.1966382 -0.031743612 10921891
0.55999172 0.19923963 -0.032847665 10921891
0.55947953 0.20147038 -0.03329232 10921891
0.55827683 0.204088 -0.034394562 10921891
0.55776572 0.20633024 -0.03483776 10921891
0.55794579 0.20819013 -0.034622975 10921891
0.55743527 0.21043931 -0.035065547 10987427
0.55761546 0.21230146 -0.034850519 10987427
0.55848569 0.21376969 -0.03397863 10987427
0.55935532 0.21523331 -0.033107359 10987427
0.55953509 0.21709085 -0.032892801 10921634
0.56040406 0.21854754 -0.03202229 11053220
0.56058371 0.22040273 -0.031808045 10987427
0.56145203 0.22185251 -0.030938286 10921634
0.56231999 0.22329758 -0.030069135 10855841
0.56181067 0.22555833 -0.030510284 10921634
0.56199002 0.22741126 -0.0302963 10921381
0.56148142 0.22967897 -0.030736642 10987174
0.56097329 0.23195121 -0.031176485 11052967
0.56046557 0.23422821 -0.031615753 11119017
0.55995822 0.23650976 -0.032054562 11119017
0.55945152 0.23879594 -0.032492772 11250603
0.55825835 0.24151313 -0.033583473 11250603
0.55775267 0.24381085 -0.034020413 11316396
0.55793375 0.24568228 -0.033804253 11316396
0.55674267 0.24842028 -0.034892574 11184553
0.55623829 0.25073192 -0.035327908 11250603
0.5550487 0.25348607 -0.036414254 11250603
0.55523092 0.25536904 -0.036196824 11119017
0.55404276 0.25813708 -0.037281718 11119017
0.55422539 0.26002473 -0.037063662 11250603
0.55440807 0.26191235 -0.036845714 11250603
0.55459076 0.26380002 -0.036627658 11119017
0.55477345 0.26568761 -0.03640965 11250603
0.55495608 0.2675752 -0.03619162 11119017
0.55582261 0.26900646 -0.035324067 11119017
0.55668879 0.27043298 -0.034456972 11119017
0.55755448 0.271855 -0.033590507 11250603
0.55978614 0.27234566 -0.031427018 11119017
0.56133342 0.27328804 -0.029913634 11119017
0.5628798 0.27422127 -0.028401326 11184553
0.56374276 0.27561545 -0.027538097 11184553
0.56460536 0.27700505 -0.026675204 11184553
0.56614947 0.27791512 -0.025165657 11119017
0.56632906 0.27977031 -0.024951348 11250603
0.56719023 0.28114605 -0.024090206 11316139
0.56736952 0.28299892 -0.023876188 11316139
0.56686765 0.28533602 -0.024308601 11316139
0.5663662 0.28767774 -0.024740398 11381932
0.56586528 0.29002404 -0.025171621 11118760
0.56468415 0.29286617 -0.026248001 11184553
0.56418437 0.29522407 -0.026677839 11184553
0.56368494 0.29758656 -0.027107278 11184553
0.56250614 0.30045182 -0.028180882 11184553
0.5606485 0.30382654 -0.029897913 11184553
0.5601511 0.30620992 -0.030324984 11316139
0.56033331 0.30809289 -0.030107487 11316139
0.55983663 0.31048322 -0.030533692 11381932
0.56001902 0.31236854 -0.030315967 11316139
0.56020147 0.31425384 -0.030098267 11382185
0.55970567 0.31665334 -0.030523347 11316392
0.55988836 0.31854096 -0.030305358 11316392
0.56007105 0.32042858 -0.030087369 11382185
0.56025374 0.32231617 -0.029869361 11382185
0.56043637 0.32420382 -0.029651284 11382185
0.56061906 0.32609144 -0.029433316 11316392
0.56080174 0.32797912 -0.029215299 11053220
0.56030768 0.3303971 -0.029638264 11184806
0.56049061 0.33228704 -0.029419944 11316392
0.5599972 0.33471206 -0.029842159 11382185
0.55950427 0.33714169 -0.030263947 11382185
0.55901176 0.33957592 -0.030685019 11316649
0.55851978 0.34201479 -0.03110557 11316649
0.55802816 0.34445828 -0.031525634 11382442
0.55753708 0.34690642 -0.031945135 11382442
0.55704635 0.34935915 -0.032364152 11382442
0.55655611 0.35181653 -0.032782655 11316649
0.55606639 0.35427856 -0.033200555 11382442
0.55625123 0.35618928 -0.032979876 11382185
0.55643624 0.3581 -0.032759197 11382185
0.55662107 0.3600108 -0.032538511 11316392
0.55613238 0.3624844 -0.032955095 11316392
0.55699092 0.36383227 -0.032097109 11316392
0.55717582 0.36574298 -0.031876493 11382185
0.55803365 0.36708406 -0.031019289 11316392
0.55821836 0.36899248 -0.030798877 11382185
0.55907547 0.37032658 -0.029942524 11447978
0.55926001 0.37223274 -0.029722393 11316139
0.56011653 0.3735598 -0.028866827 11316139
0.56030077 0.3754636 -0.02864695 11316139
0.56115651 0.37678379 -0.027792243 11447725
0.56134051 0.3786853 -0.027572609 11316396
0.56152457 0.3805868 -0.027353037 11382189
0.56237948 0.38189772 -0.026499296 11382189
0.56256336 0.38379684 -0.026279934 11447982
0.56274706 0.38569611 -0.026060579 11447982
0.56360108 0.38699776 -0.02520806 11316396
0.56311464 0.38949448 -0.025621912 11382189
0.56396818 0.39079154 -0.024769878 11316396
0.56348228 0.39329284 -0.025183218 11316396
0.56366605 0.39519206 -0.024963867 11382189
0.56318074 0.39770037 -0.025376488 11316396
0.56269592 0.40021315 -0.025788523 11382189
0.56288016 0.40211695 -0.025568623 11382189
0.56239587 0.40463689 -0.025979901 11447984
0.56258035 0.40654305 -0.025759706 11317168
0.56276488 0.40844917 -0.025539579 11185582
0.5629493 0.41035524 -0.025319438 11119789
0.56313372 0.4122614 -0.02509935 11250605
0.56331825 0.41416758 -0.024879111 11447984
0.56350267 0.41607365 -0.024658991 11447984
0.56302029 0.41861197 -0.025068145 11513777
0.563205 0.4205204 -0.024847731 11317168
0.56272334 0.4230656 -0.025256 11382961
0.56290817 0.42497641 -0.02503527 11251375
0.56242716 0.42752856 -0.02544274 11317938
0.56194645 0.43008554 -0.025849784 11449524
0.56146634 0.43264693 -0.026256206 11317938
0.5609867 0.43521306 -0.026662061 11317938
0.56117243 0.43713304 -0.026440335 11186352
0.56069344 0.43970609 -0.026845433 11120559
0.56666112 -0.38362554 -0.041646115 10790305
0.56682122 -0.38197157 -0.041455109 10592673
0.56698126 -0.38031754 -0.041263994 10526880
0.56637764 -0.37904918 -0.041821428 10526880
0.56653792 -0.37739286 -0.041630175 10526880
0.56669825 -0.37573656 -0.041438837 10592673
0.56685853 -0.3740803 -0.041247569 10658719
0.56625599 -0.37280035 -0.041803602 10658719
0.56717914 -0.37076768 -0.040864956 10658719
0.56733942 -0.36911139 -0.040673684 10592926
0.56673753 -0.36782455 -0.041228924 10592926
0.56765997 -0.36579883 -0.040291101 10592673
0.56705862 -0.36450729 -0.040845752 10724002
0.56798059 -0.36248624 -0.039908491 10724002
0.56814086 -0.36082995 -0.03971722 10724002
0.56906211 -0.35881585 -0.038780719 10724255
0.56922221 -0.35716185 -0.038589716 10658462
0.57014281 -0.35515463 -0.037653968 10658462
0.57030267 -0.35350296 -0.037463162 10461340
0.57122254 -0.35150269 -0.036528263 10527133
0.57138222 -0.34985337 -0.036337793 10592926
0.57154185 -0.34820402 -0.036147241 10395547
0.57170153 -0.34655467 -0.035956789 10592669
0.57186115 -0.34490532 -0.035766233 10592669
0.57202071 -0.34325597 -0.035575766 10592669
0.57293916 -0.34127191 -0.03464273 10724255
0.57309854 -0.33962485 -0.034452483 10527133
0.57325792 -0.33797783 -0.03426224 10461340
0.57341731 -0.33633077 -0.034072012 10527133
0.57357669 -0.33468372 -0.033881832 10461087
0.57373601 -0.33303669 -0.033691566 10526880
0.57389551 -0.33138967 -0.033501364 10592673
0.5740549 -0.32974258 -0.033311173 10592673
0.57497126 -0.32777935 -0.032380465 10526623
0.5751304 -0.32613462 -0.032190531 10592416
0.57528961 -0.32448992 -0.032000553 10526876
0.57469255 -0.32315442 -0.032550253 10461083
0.57485193 -0.32150742 -0.03235995 10526876
0.57425535 -0.32016498 -0.032908894 10527133
0.57441503 -0.31851566 -0.032718342 10527133
0.57457459 -0.31686625 -0.032527886 10461340
0.57397902 -0.31551456 -0.033075698 10395547
0.57338387 -0.31415829 -0.033623002 10461083
0.57278919 -0.31279737 -0.034169663 10461083
0.57294953 -0.31114107 -0.033978391 10526876
0.57235557 -0.30977324 -0.034524251 10724255
0.57176191 -0.30840075 -0.03506979 10724255
0.57116878 -0.30702367 -0.035614584 10724255
0.57132977 -0.30536041 -0.035422504 10658462
0.57073736 -0.30397636 -0.035966493 10592669
0.57089853 -0.30231082 -0.035774194 10526880
0.57105976 -0.30064526 -0.035581768 10395294
0.57197362 -0.29870749 -0.034654148 10461087
0.57213455 -0.29704425 -0.034462072 10461087
0.57304782 -0.29511335 -0.033535182 10395294
0.5739606 -0.29318714 -0.032608725 10395547
0.57487303 -0.29126552 -0.031682864 10461083
0.57578486 -0.28934854 -0.0307576 10395290
0.57669634 -0.28743625 -0.029832816 10395290
0.57760733 -0.28552851 -0.028908473 10395290
0.5777669 -0.28387916 -0.02871809 10263704
0.57792652 -0.28222981 -0.028527597 10263704
0.57808614 -0.28058043 -0.028337104 10395290
0.57824576 -0.27893114 -0.028146572 10395290
0.57840538 -0.27728173 -0.027956119 10395290
0.578565 -0.27563238 -0.027765628 10197911
0.57872462 -0.27398303 -0.027575092 10526106
0.57738549 -0.27280873 -0.028847337 10526106
0.57754558 -0.27115476 -0.028656252 10394520
0.57695675 -0.26973367 -0.029196024 10394520
0.57711703 -0.2680774 -0.029004754 10394518
0.57652885 -0.2666494 -0.029543774 10591384
0.57668936 -0.26499081 -0.029352169 10591384
0.57610172 -0.26355588 -0.029890392 10394518
0.57551473 -0.26211628 -0.030428072 10394518
0.57567573 -0.26045308 -0.030235959 10328725
0.57508934 -0.25900656 -0.030772777 10197909
0.57450342 -0.2575554 -0.031309098 10197909
0.57391781 -0.2560997 -0.03184494 10263702
0.57333285 -0.25463927 -0.032380126 10263702
0.5720017 -0.25338176 -0.033642743 10197139
0.57141781 -0.25190979 -0.034176599 10262932
0.57008827 -0.25063601 -0.035437398 10526106
0.56950551 -0.24915254 -0.035969924 10394005
0.56817758 -0.24786258 -0.037228703 10394005
0.56759584 -0.2463675 -0.037760064 10328212
0.56775969 -0.24467425 -0.037564434 10197139
0.56717867 -0.24317218 -0.038094837 10197139
0.57032156 -0.2407207 -0.034996111 10262932
0.57495135 -0.23791443 -0.030448454 10394520
0.57957858 -0.23513585 -0.025904058 10394520
0.59328759 -0.2285838 -0.012476957 10591899
0.59864897 -0.22572498 -0.0072194124 10591899
0.58003592 -0.13283411 -0.023239538 9080457
0.57873905 -0.13122264 -0.024461398 9014664
0.57598341 -0.12967451 -0.027098168 9014664
0.57468879 -0.1280399 -0.028317228 9014664
0.57339513 -0.12639605 -0.029535158 9079687
0.57356083 -0.12468424 -0.02933741 9079687
0.57299739 -0.12299948 -0.029846881 9013894
0.57243454 -0.12131007 -0.030355645 9013894
0.57187206 -0.11961602 -0.030863894 9013894
0.5713101 -0.11791739 -0.031371571 9013894
0.57147664 -0.11619632 -0.031172797 9013894
0.57164323 -0.11447525 -0.030974064 8948101
0.57180983 -0.11275419 -0.03077529 8882308
0.5719763 -0.11103312 -0.030576473 8882055
0.5721429 -0.10931204 -0.03037772 8947848
0.57230943 -0.10759099 -0.030178925 8882308
0.57247603 -0.10586991 -0.029980171 8948101
0.57264256 -0.10414884 -0.029781375 8882308
0.57280916 -0.10242779 -0.029582623 8882308
0.5729757 -0.10070673 -0.029383849 8750722
0.57314223 -0.098985642 -0.029185073 8882308
0.57403439 -0.097272247 -0.028283261 8750722
0.57420069 -0.09555348 -0.028084794 8816258
0.57436705 -0.093834721 -0.027886266 8684929
0.5745334 -0.092115983 -0.027687738 8619136
0.57397503 -0.090380311 -0.028191181 8750722
0.57341701 -0.088640019 -0.028694132 8750722
0.57141089 -0.086852029 -0.030599382 8750722
0.57157832 -0.085121721 -0.030399518 8750722
0.56885034 -0.083286725 -0.033003159 8882308
0.56540066 -0.081404775 -0.036305446 8882308
0.55434161 -0.075584672 -0.046895903 8882308
0.55162376 -0.073645599 -0.049487479 8882308
0.55179769 -0.071848206 -0.049279951 8947844
0.55197167 -0.070050798 -0.04907234 8947844
0.55231953 -0.06645599 -0.048657116 8948101
0.55249351 -0.064658567 -0.048449542 8948101
0.5526675 -0.062861189 -0.048241977 9013894
0.55284137 -0.061063774 -0.048034426 9079687
0.55301535 -0.05926637 -0.047826771 9079687
0.55318928 -0.057468962 -0.04761916 9079687
0.5533632 -0.055671554 -0.047411632 9145480
0.55353719 -0.053874157 -0.047204081 9211273
0.55371112 -0.052076761 -0.046996407 9211273
0.5538851 -0.050279349 -0.046788815 9211273
0.55405903 -0.048481945 -0.046581246 9276809
0.55423301 -0.046684541 -0.046373654 9276809
0.55512613 -0.044961892 -0.04547077 9276809
0.55601865 -0.04324384 -0.044568423 9408395
0.55619216 -0.041451063 -0.044361368 9342859
0.55708414 -0.039739966 -0.043459926 9408652
0.55725747 -0.037949517 -0.043253094 9474445
0.55814862 -0.036245339 -0.042352412 9540238
0.55760396 -0.034368578 -0.042839557 9606029
0.55777723 -0.032578111 -0.042632747 9606029
0.5579505 -0.030787647 -0.042425979 9606029
0.55884087 -0.029092748 -0.04152628 9606029
0.55901396 -0.027304601 -0.041319735 9606029
0.55990374 -0.025616646 -0.040420841 9606029
0.56079298 -0.023933303 -0.03952254 9606029
0.56168193 -0.022254597 -0.038624775 9803408
0.5618543 -0.020473374 -0.038419031 9803408
0.56202668 -0.018692173 -0.038213335 9803408
0.56291455 -0.01702272 -0.037316576 9934994
0.56380212 -0.015357884 -0.036420371 9934994
0.56397402 -0.013581296 -0.036215246 9934994
0.56414598 -0.011804717 -0.036009997 10000787
0.56431788 -0.010028134 -0.035804853 10000787
0.5637753 -0.0081282146 -0.036289327 9934994
0.56394744 -0.0063493238 -0.036083855 9934994
0.56340563 -0.0044424813 -0.036567505 10066580
0.56357801 -0.0026612673 -0.036361869 10066580
0.56375039 -0.00088006107 -0.036156062 10066580
0.56392276 0.00090114766 -0.035950363 10066580
0.56409514 0.002682369 -0.035744704 10066580
0.56355464 0.0046030851 -0.036226753 10066580
0.56443995 0.0062447838 -0.035333201 10132373
0.56532466 0.0078818509 -0.034440268 10132373
0.56478471 0.0098072076 -0.034921758 10132373
0.56495702 0.01158842 -0.034716018 10198166
0.56441766 0.013520712 -0.035196837 10198166
0.57312876 0.013463516 -0.026756536 10132373
0.58610237 0.012416541 -0.014207002 10132373
0.58484614 0.014446701 -0.015380292 10132373
0.5623858 0.052572001 -0.036317859 10461338
0.56326705 0.054172061 -0.035429157 10527131
0.5648545 0.055563189 -0.033860598 10461338
0.56573457 0.05715169 -0.032973252 10592667
0.56732035 0.058526658 -0.031406645 10592667
0.56890529 0.059892341 -0.029841149 10526874
0.56978363 0.061462335 -0.028955856 10526874
0.57277799 0.062380124 -0.026034178 10658460
0.57294947 0.064152084 -0.025829589 10658460
0.57382601 0.065703578 -0.024946453 10592667
0.57329243 0.06769602 -0.025420284 10526874
0.57275939 0.069693059 -0.025893517 10592667
0.5736354 0.071239918 -0.025010981 10658460
0.57310271 0.073241614 -0.0254837 10658460
0.57397836 0.074783839 -0.024601676 10658460
0.57274246 0.077024512 -0.025750739 10658460
0.57221085 0.079037763 -0.026222102 10658717
0.57167983 0.081055641 -0.026692949 10790303
0.57114917 0.083078146 -0.027163306 10592924
0.57061899 0.085105278 -0.027633045 10658717
0.5693866 0.08738298 -0.028777873 10658719
0.56885749 0.08942169 -0.029246232 10658719
0.56832886 0.091465019 -0.029714206 10658719
0.56850266 0.093260087 -0.029506799 10592926
0.56797463 0.095310353 -0.029973948 10592926
0.56814855 0.097107776 -0.029766399 10592926
0.56832254 0.098905176 -0.029558785 10790305
0.56849653 0.10070256 -0.029351197 10724253
0.56796962 0.10276444 -0.029817007 10724253
0.56814378 0.10456414 -0.029609131 10658460
0.5676176 0.10663293 -0.030074079 10658460
0.56709194 0.1087063 -0.030538581 10658460
0.56656659 0.11078434 -0.031002525 10658460
0.56604165 0.112867 -0.031465869 10592667
0.56551725 0.1149543 -0.031928681 10592667
0.56429422 0.1173268 -0.033062495 10658460
0.56446993 0.11914272 -0.032852747 10658460
0.56394684 0.12124386 -0.033314019 10658460
0.5641228 0.1230621 -0.033103984 10592924
0.56360042 0.12517022 -0.033564493 10527131
0.56307852 0.1272829 -0.03402435 10527131
0.56325489 0.12910576 -0.033813775 10592924
0.56273377 0.13122544 -0.03427295 10592924
0.56291026 0.13305059 -0.034062136 10658717
0.56238973 0.13517718 -0.034520388 10790303
0.56186962 0.13730845 -0.034978203 10658717
0.56204671 0.13913822 -0.034766916 10527131
0.56222379 0.14096799 -0.034555502 10527131
0.56170446 0.14310852 -0.03501223 10658717
0.56188172 0.14494061 -0.03480063 10658717
0.56136328 0.14708802 -0.035256542 10592926
0.56154078 0.14892249 -0.035044711 10658719
0.56171834 0.15075687 -0.034832805 10658719
0.56189591 0.1525913 -0.034620941 10790305
0.56207341 0.1544257 -0.034409057 10592926
0.56225091 0.15626012 -0.034197211 10790305
0.56242841 0.15809451 -0.033985324 10790305
0.56260598 0.15992895 -0.033773459 10790305
0.56347752 0.16142952 -0.032896269 10658719
0.56434882 0.16292547 -0.032019567 10658719
0.56452584 0.16475527 -0.031808212 10856098
0.56539631 0.16624428 -0.030932294 10790305
0.56557322 0.16807176 -0.030721271 10790305
0.56575 0.16989924 -0.030510187 10658719
0.56523412 0.17207444 -0.030962909 10790305
0.5661037 0.1735542 -0.030088101 10790305
0.5655883 0.17573401 -0.030540287 10790305
0.56576538 0.17756382 -0.03032887 10856098
0.56594247 0.17939359 -0.030117627 10790305
0.56611955 0.18122335 -0.029906234 10790305
0.56629664 0.18305317 -0.029694963 10855845
0.56647372 0.18488298 -0.029483566 10855845
0.56526887 0.18744516 -0.030595496 10790305
0.56475574 0.18964812 -0.031044969 10790305
0.56424296 0.1918557 -0.03149391 10856098
0.5637306 0.19406793 -0.031942312 10856098
0.56321877 0.19628474 -0.032390207 10790305
0.56270736 0.19850615 -0.032837547 10855841
0.56219637 0.20073223 -0.033284374 10855841
0.56168598 0.20296295 -0.033730637 10855841
0.56117582 0.20519826 -0.034176376 10856098
0.56135517 0.20705116 -0.033962395 10921891
0.56084573 0.20929345 -0.03440737 10790052
0.56102532 0.21114871 -0.034193054 10921638
0.56120485 0.21300393 -0.033978783 10921891
0.56138432 0.21485917 -0.033764534 10921634
0.56225175 0.21631581 -0.032892376 10921634
0.5631187 0.21776779 -0.032020755 10987427
0.56329781 0.21961839 -0.031806998 10921634
0.56347686 0.221469 -0.031593263 10921634
0.56365597 0.22331965 -0.031379543 10855841
0.56383502 0.2251702 -0.031165773 10921634
0.56401414 0.22702083 -0.030952055 10921381
0.56350696 0.22928631 -0.031394329 10987174
0.56300026 0.23155628 -0.031835999 10987174
0.56249398 0.23383094 -0.032277297 10921638
0.5613026 0.23653197 -0.033373129 11053224
0.56079745 0.23881817 -0.033812989 11119017
0.56029284 0.241109 -0.034252267 11250603
0.55978858 0.24340451 -0.034691136 11316396
0.55996948 0.24527362 -0.034475263 11250603
0.55878145 0.24800935 -0.035567131 11119017
0.55896276 0.24988309 -0.035350658 11119017
0.55777609 0.25263268 -0.036441032 11119017
0.55795795 0.25451106 -0.036223982 11119017
0.55745608 0.25683194 -0.036659919 11119017
0.55695474 0.25915748 -0.03709517 11250603
0.55645382 0.26148766 -0.037530035 11119017
0.55663627 0.26337299 -0.037312288 11119017
0.55681878 0.26525831 -0.037094545 11250603
0.55768365 0.26668948 -0.036225285 11119017
0.55786586 0.26857245 -0.036007814 11119017
0.55873013 0.2699967 -0.035139497 11119017
0.56027567 0.27095529 -0.033620894 11119017
0.56182033 0.27190459 -0.032103408 11119017
0.56268275 0.2733103 -0.031237148 11119017
0.56422579 0.2742435 -0.029721541 11184553
0.565768 0.27516738 -0.028207075 11184553
0.56594801 0.27702719 -0.027992232 11119017
0.5668084 0.2784121 -0.027128335 11119017
0.56766832 0.27979246 -0.026265051 11250603
0.56784791 0.28164765 -0.026050765 11119017
0.56802744 0.28350288 -0.025836494 11119017
0.56752747 0.2858423 -0.026270207 11250603
0.56634855 0.28867286 -0.027351184 11053224
0.5665288 0.29053509 -0.027136108 11053224
0.56603014 0.29288837 -0.027568238 11053224
0.56553197 0.29524624 -0.027999671 11250603
0.56503427 0.29760882 -0.028430818 11119017
0.56385875 0.30047408 -0.029507741 11119017
0.56336212 0.30284822 -0.029937403 11119017
0.56286597 0.30522698 -0.030366614 11119017
0.56304783 0.30710533 -0.030149631 11316139
0.56255221 0.30949101 -0.030578021 11381932
0.56273425 0.31137168 -0.030360835 11316139
0.56223935 0.31376433 -0.030788401 11382185
0.56242162 0.3156473 -0.030570904 11316392
0.56192744 0.3180469 -0.03099771 11381932
0.56210989 0.31993222 -0.030779965 11381932
0.56161648 0.32233873 -0.031205973 11382185
0.56247479 0.32370284 -0.03034454 11316392
0.56265724 0.32558814 -0.030126799 11316392
0.56216443 0.32800162 -0.030551895 11184553
0.56234711 0.32988921 -0.03033389 11184806
0.5625298 0.33177686 -0.030115897 11382185
0.56271249 0.33366448 -0.029897885 11382185
0.56222075 0.33608946 -0.030321695 11316649
0.56172949 0.3385191 -0.030744964 11316396
0.56123865 0.34095347 -0.03116782 11316396
0.56074828 0.34339228 -0.031590011 11382189
0.56025839 0.3458358 -0.032011677 11447982
0.55976892 0.34828395 -0.032432877 11382189
0.55995297 0.35018542 -0.032213241 11316396
0.56013697 0.35208696 -0.031993669 11316396
0.55964845 0.35454434 -0.032413732 11250856
0.55983275 0.3564482 -0.032193847 11316649
0.55934471 0.35891256 -0.032613177 11316649
0.55952919 0.36081865 -0.032392964 11184806
0.55971366 0.36272481 -0.0321729 11184806
0.56056964 0.36406344 -0.031314369 11382185
0.56075394 0.36596724 -0.031094467 11316392
0.56093818 0.36787102 -0.030874571 11382185
0.56179315 0.36920047 -0.030017124 11382185
0.56264776 0.37052524 -0.029160174 11316392
0.56350183 0.37184536 -0.028303823 11184806
0.56368542 0.37374222 -0.028084703 11382185
0.563869 0.37563911 -0.027865686 11381932
0.5647223 0.37695006 -0.027010418 11381932
0.56490564 0.37884465 -0.026791621 11447725
0.56508899 0.38073918 -0.026572814 11513518
0.56527233 0.38263378 -0.026353978 11382189
0.56545568 0.38452828 -0.026135108 11382189
0.5663076 0.38582531 -0.025281342 11316396
0.56582236 0.38831741 -0.025697483 11382189
0.56600571 0.39021197 -0.02547867 11382189
0.56618905 0.39210656 -0.025259856 11382189
0.5657047 0.39460787 -0.025674827 11382189
0.56588829 0.39650479 -0.025455808 11382189
0.56607187 0.39840159 -0.025236735 11513775
0.56558853 0.40091226 -0.02565065 11447982
0.56577229 0.40281144 -0.025431301 11447984
0.5652895 0.40532899 -0.025844464 11447984
0.56547356 0.40723038 -0.025624819 11382191
0.56565756 0.40913188 -0.025405269 11316398
0.56584156 0.41103348 -0.025185624 10987433
0.56602567 0.41293496 -0.024966013 11513777
0.56620961 0.41483641 -0.024746362 11447984
0.56572849 0.41737017 -0.025157673 11382961
0.56591272 0.419274 -0.024937788 11382961
0.56543213 0.42181471 -0.025348233 11382961
0.56495214 0.42436001 -0.025758231 11251375
0.56513679 0.42626846 -0.025537856 11317938
0.56465745 0.4288207 -0.025946926 11515317
0.56417853 0.43137756 -0.026355481 11317938
0.56369996 0.43393907 -0.026763674 11317938
0.56322193 0.43650514 -0.027171165 11186352
0.56340754 0.43842289 -0.026949696 11120559
0.56938052 -0.38282081 -0.041315455 10856098
0.56954014 -0.38117149 -0.041124947 10658719
0.56893754 -0.37990996 -0.041684821 10658466
0.5690974 -0.37825829 -0.041494086 10592673
0.56925726 -0.37660661 -0.041303344 10526880
0.56941706 -0.374955 -0.04111255 10592673
0.56881559 -0.37368193 -0.041671157 10658466
0.56897563 -0.37202796 -0.041480113 10592673
0.56913567 -0.37037396 -0.041289084 10592926
0.56929576 -0.36872 -0.041098058 10658719
0.5702163 -0.36669666 -0.040158775 10658719
0.57037616 -0.36504498 -0.039968017 10592673
0.57129598 -0.36302859 -0.039029576 10592416
0.57145566 -0.36137915 -0.038839031 10658209
0.57161528 -0.35972986 -0.038648546 10658209
0.57177484 -0.35808048 -0.038458094 10724002
0.57193446 -0.35643119 -0.038267631 10658462
0.57209408 -0.35478181 -0.038077135 10658462
0.57301247 -0.3527815 -0.03714047 10527133
0.57317179 -0.35113448 -0.036950313 10592926
0.57333124 -0.34948748 -0.036760092 10592926
0.57349056 -0.34784046 -0.036569849 10461340
0.57440776 -0.34585178 -0.035634633 10592416
0.5745669 -0.34420705 -0.035444632 10592416
0.57472605 -0.34256235 -0.035254739 10658209
0.57488525 -0.34091759 -0.035064738 10658209
0.57504445 -0.33927286 -0.034874801 10461087
0.57520366 -0.3376281 -0.034684859 10526880
0.57611918 -0.33565569 -0.033751417 10461340
0.57627809 -0.33401328 -0.033561833 10461340
0.57643706 -0.33237085 -0.033372056 10395294
0.57659602 -0.33072844 -0.033182409 10526880
0.57675493 -0.32908604 -0.03299268 10592673
0.57691389 -0.32744363 -0.032803074 10526623
0.57707286 -0.32580119 -0.032613274 10526623
0.57723176 -0.32415879 -0.032423627 10526876
0.57739073 -0.32251629 -0.032233991 10461083
0.5775497 -0.32087395 -0.032044265 10526876
0.57695448 -0.31953609 -0.032595303 10592669
0.57711363 -0.31789142 -0.032405332 10461340
0.57651913 -0.31654656 -0.032955606 10395547
0.57592481 -0.31519723 -0.033505321 10395547
0.57608449 -0.31354788 -0.033314787 10329754
0.57549107 -0.31219155 -0.033863734 10395547
0.57489812 -0.31083062 -0.034412108 10461340
0.57430553 -0.30946502 -0.034959923 10592926
0.57446587 -0.30780876 -0.034768652 10724255
0.57387388 -0.30643624 -0.03531567 10658462
0.57328242 -0.30505913 -0.035862155 10658462
0.57269144 -0.30367738 -0.036408149 10658209
0.57285237 -0.30201414 -0.036216009 10592416
0.57301337 -0.3003509 -0.036023956 10460830
0.57317442 -0.29868764 -0.035831898 10461087
0.57333529 -0.29702443 -0.035639767 10461087
0.57424688 -0.29509354 -0.034711204 10395294
0.57590842 -0.29290208 -0.033046991 10395290
0.5760687 -0.29124582 -0.032855697 10395290
0.57697892 -0.28932884 -0.031928767 10395290
0.57788873 -0.28741658 -0.03100235 10263704
0.578798 -0.28550887 -0.030076487 10263704
0.57895762 -0.28385946 -0.029885992 10263704
0.57911724 -0.28221008 -0.029695453 10263704
0.57927686 -0.28056079 -0.029504968 10197911
0.57943648 -0.27891144 -0.029314497 10395290
0.57959604 -0.27726203 -0.029124022 10395290
0.57975572 -0.27561268 -0.028933488 10197911
0.5799154 -0.27396336 -0.028742978 10263704
0.58007497 -0.27231401 -0.028552465 10263704
0.57948709 -0.27089983 -0.029094731 10263704
0.57889968 -0.26948106 -0.029636489 10394520
0.57905978 -0.26782709 -0.0294454 10328727
0.57921982 -0.26617312 -0.02925442 10328727
0.57863337 -0.26474509 -0.029794998 10262932
0.57804722 -0.26331246 -0.030335009 10262932
0.5774616 -0.26187515 -0.030874711 10262932
0.57687646 -0.26043326 -0.031413674 10262932
0.57703739 -0.25877005 -0.03122158 10132116
0.57719833 -0.25710678 -0.031029504 10197909
0.57661408 -0.25565562 -0.031567436 10263702
0.57528526 -0.25440958 -0.032834657 10328725
0.57470202 -0.25294688 -0.033371232 10262932
0.57411933 -0.25147954 -0.033907317 10262932
0.57353705 -0.25000751 -0.034442905 10459798
0.57221115 -0.2487314 -0.035706609 10328212
0.57162994 -0.2472479 -0.03624085 10262419
0.57104933 -0.24575973 -0.036774509 10262419
0.57121253 -0.24407333 -0.036579736 10131346
0.57063246 -0.24257821 -0.037112616 10065553
0.57451087 -0.2399448 -0.033280715 10197139
0.57987267 -0.23696133 -0.027997315 10394520
0.58635569 -0.13252771 -0.019463437 9080457
0.58360374 -0.13100956 -0.022110319 9014664
0.58012539 -0.12950917 -0.025464829 9014664
0.57810521 -0.12791769 -0.027397666 9013894
0.57754195 -0.1262491 -0.027910488 9079687
0.57625163 -0.12460519 -0.029131757 9013894
0.57568949 -0.122925 -0.029643258 8948101
0.57440072 -0.1212649 -0.030862657 8948101
0.57456654 -0.11955077 -0.030664664 8948101
0.5740059 -0.11785673 -0.031174542 8948101
0.5734455 -0.11615804 -0.031683911 8948101
0.57361186 -0.11443931 -0.031485427 8948101
0.57377827 -0.11272055 -0.031286832 8882308
0.57394451 -0.1110018 -0.031088347 8882055
0.57411093 -0.10928303 -0.030889796 8882055
0.57427722 -0.10756429 -0.030691331 8882055
0.57444346 -0.10584553 -0.030492866 8882308
0.57460988 -0.10412678 -0.030294338 8882308
0.57477617 -0.10240803 -0.030095873 8750722
0.57494253 -0.10068928 -0.029897304 8750722
0.57583308 -0.098975904 -0.028993925 8750722
0.5759992 -0.09725944 -0.028795682 8816258
0.57688898 -0.095553003 -0.027893024 8750465
0.57705486 -0.093838871 -0.027695071 8619136
0.5764975 -0.092110135 -0.028200943 8619136
0.57666361 -0.090393692 -0.028002704 8684929
0.57538408 -0.088638745 -0.029211124 8750722
0.57555062 -0.086917676 -0.02901233 8684929
0.57571715 -0.085196614 -0.028813556 8750722
0.57299495 -0.083370782 -0.031424884 8750722
0.57027453 -0.081526436 -0.03403407 8750722
0.55996025 -0.075776026 -0.043953281 8816258
0.5579688 -0.073888481 -0.045851901 8816258
0.55742031 -0.072067201 -0.046347171 8750463
0.55759293 -0.070283666 -0.046141181 8816258
0.55704522 -0.068455465 -0.046635546 8947844
0.5579381 -0.066716626 -0.045729186 8882308
0.55811071 -0.064933091 -0.0455232 8948101
0.55756366 -0.063097939 -0.046016697 9013894
0.55773646 -0.061312102 -0.045810483 9079687
0.55790931 -0.059526276 -0.045604251 9013894
0.55736303 -0.057681851 -0.046096787 9145480
0.55681723 -0.055832814 -0.046588786 9145480
0.5569905 -0.054042339 -0.04638204 9145480
0.55644542 -0.052186362 -0.046873175 9145480
0.55661893 -0.050393585 -0.046666116 9211273
0.55679238 -0.048600812 -0.046459042 9211273
0.55768365 -0.046880495 -0.04555488 9276809
0.55857432 -0.045164797 -0.044651173 9276809
0.55874747 -0.043376651 -0.04444465 9276809
0.55963755 -0.041667905 -0.043541677 9342859
0.55981034 -0.039882053 -0.043335423 9408652
0.55998319 -0.03809623 -0.043129168 9408652
0.56087238 -0.036396716 -0.042227414 9474445
0.56104493 -0.0346132 -0.042021405 9474443
0.56121755 -0.032829668 -0.041815415 9474443
0.56067449 -0.030952863 -0.042304125 9540236
0.56156278 -0.029262615 -0.041403461 9474443
0.56173533 -0.027479095 -0.04119743 9474443
0.56262302 -0.025795786 -0.040297464 9540236
0.5627954 -0.024014577 -0.040091764 9540236
0.56296778 -0.022233365 -0.03988602 9671822
0.56385446 -0.020559309 -0.038987122 9803408
0.56545484 -0.018999351 -0.037395865 9671822
0.56634051 -0.017336862 -0.036498256 9803408
0.56722564 -0.015678996 -0.035601228 9934994
0.56811035 -0.014025758 -0.034704838 9934994
0.56828135 -0.012258423 -0.034500699 9934994
0.56845242 -0.0104911 -0.034296516 10000787
0.56862342 -0.0087237591 -0.034092441 9934994
0.56879449 -0.0069564325 -0.033888303 9934994
0.56896549 -0.0051890993 -0.033684228 10000787
0.56913656 -0.0034217725 -0.033480067 10000787
0.56930757 -0.001654443 -0.033275992 10066580
0.56947863 0.00011290363 -0.033071872 10066580
0.56893826 0.0020174561 -0.033557396 10066580
0.5691095 0.0037870978 -0.033353012 10066580
0.56999171 0.0054148883 -0.03245952 10132373
0.57158434 0.0068938718 -0.030877467 10132373
0.56891274 0.0092425058 -0.033428498 10066580
0.56908423 0.011014467 -0.033223823 10132373
0.59169412 0.049941111 -0.010383617 10788763
0.59115517 0.05186189 -0.010867397 10592667
0.5920254 0.05336475 -0.0099882269 10526874
0.59148699 0.055290144 -0.010471452 10592667
0.59165287 0.057004269 -0.010273479 10724253
0.59181869 0.058718394 -0.010075485 10592667
0.59128129 0.06065302 -0.010557643 10592667
0.59144741 0.062369455 -0.010359361 10526874
0.58458418 0.066337228 -0.016956573 10592667
0.57561737 0.071033597 -0.025586365 10658460
0.57578862 0.072803244 -0.025382021 10658460
0.57736444 0.074108712 -0.023820115 10658460
0.58034331 0.074936219 -0.020902343 10658460
0.57015175 0.089443058 -0.030515699 10592926
0.56962478 0.091486402 -0.030985279 10658719
0.56979853 0.09328147 -0.030777957 10592926
0.56997222 0.095076591 -0.030570632 10592926
0.56944621 0.097129174 -0.031039124 10592926
0.56962013 0.098926581 -0.030831531 10658719
0.56979406 0.100724 -0.030623918 10724253
0.56996799 0.1025214 -0.030416308 10658460
0.56944299 0.10458558 -0.030883502 10592667
0.56891847 0.10665438 -0.03135008 10658460
0.56839448 0.10872781 -0.031816207 10658460
0.56787086 0.11080588 -0.032281797 10592667
0.56734771 0.11288856 -0.032746729 10592667
0.56682491 0.11497586 -0.033211235 10592667
0.56630266 0.11706778 -0.033675246 10592667
0.56578088 0.11916436 -0.034138575 10592667
0.56525946 0.12126553 -0.034601498 10592669
0.56473851 0.12337136 -0.035063904 10592926
0.5649147 0.1251919 -0.034853619 10592926
0.56439435 0.12730464 -0.035315145 10527131
0.56457084 0.1291275 -0.035104528 10592924
0.56405139 0.13124718 -0.035565268 10592924
0.56353223 0.13337147 -0.03602552 10658719
0.56370902 0.13519898 -0.035814412 10790305
0.56388587 0.13702643 -0.035603352 10658719
0.56406271 0.13885392 -0.035392284 10592926
0.56354469 0.14098981 -0.035851222 10592926
0.56302708 0.14313035 -0.036309555 10658719
0.56320441 0.14496244 -0.036097977 10658719
0.56268758 0.1471099 -0.036555491 10592926
0.56286508 0.14894432 -0.036343582 10592926
0.56304264 0.15077871 -0.03613174 10592926
0.56322014 0.15261312 -0.035919879 10592926
0.56339771 0.15444754 -0.03570801 10724255
0.56426823 0.15595503 -0.034828305 10724255
0.56444556 0.15778716 -0.034616724 10658462
0.56462282 0.15961924 -0.034405109 10527133
0.56480014 0.16145135 -0.034193572 10527133
0.56566972 0.1629473 -0.0333152 10592926
0.56584686 0.16477707 -0.033103913 10658719
0.56602389 0.16660686 -0.03289254 10658719
0.56689239 0.16809352 -0.032015242 10658719
0.566378 0.17026645 -0.032469917 10658719
0.56655508 0.17209624 -0.032258607 10790305
0.56742299 0.17357597 -0.031382088 10658719
0.56759989 0.17540343 -0.031171024 10658719
0.56777674 0.17723091 -0.03095996 10790305
0.56795359 0.17905839 -0.030748894 10790305
0.56744057 0.18124516 -0.031201931 10790305
0.56761765 0.18307498 -0.030990513 10790052
0.56779468 0.18490477 -0.030779244 10790052
0.56728238 0.18710078 -0.031231195 10790052
0.56677067 0.18930146 -0.031682562 10790052
0.56625944 0.19150674 -0.032133419 10790305
0.56643713 0.19334346 -0.031921327 10855841
0.565238 0.19593123 -0.033033587 10855841
0.56472814 0.19815037 -0.033482756 10855841
0.56421864 0.20037416 -0.033931457 10855841
0.56370956 0.20260258 -0.034379598 10724255
0.56320101 0.20483558 -0.034827314 10724255
0.56269282 0.20707327 -0.035274431 10658466
0.56287211 0.2089262 -0.035060447 10790052
0.56305146 0.21077915 -0.034846462 10790052
0.56323075 0.21263207 -0.034632396 10790052
0.5634101 0.214485 -0.034418434 10921381
0.56427562 0.21593924 -0.033544898 10855588
0.56445473 0.21778986 -0.033331186 10855588
0.56463379 0.21964046 -0.033117428 10855588
0.56481284 0.22149107 -0.032903671 10921381
0.56499195 0.22334173 -0.032689929 10855588
0.565171 0.22519228 -0.03247622 10987427
0.56535012 0.22704288 -0.032262463 10921381
0.56484467 0.22930837 -0.03270641 10921381
0.56502396 0.23116125 -0.032492347 10987174
0.56383497 0.2338531 -0.033592626 10987174
0.56333095 0.23613238 -0.03403483 11053224
0.5621435 0.23884042 -0.035133265 11053224
0.56164044 0.24113129 -0.035574235 11250603
0.5618211 0.24299808 -0.035358567 11119017
0.56131881 0.2452959 -0.035798777 11250603
0.56081688 0.24759836 -0.03623841 11119017
0.56099808 0.24946974 -0.036022276 11184553
0.56049675 0.25177917 -0.036461085 11184553
0.56067812 0.25365284 -0.036244724 11119017
0.56017751 0.25596923 -0.036682751 11119017
0.55967748 0.25829014 -0.037120253 11250603
0.55917782 0.26061571 -0.037557174 11053224
0.55935979 0.26249641 -0.037340004 11053224
0.55954182 0.26437709 -0.037122753 10987431
0.55972379 0.26625776 -0.036905523 11053224
0.56058645 0.26768202 -0.036035493 11053224
0.56212878 0.26864281 -0.034513459 10987431
0.56299019 0.27005544 -0.033644732 11053224
0.56385118 0.27146351 -0.032776531 11053224
0.56539136 0.27240118 -0.031257167 11119017
0.56625116 0.27379766 -0.030390348 11184553
0.56711066 0.27518952 -0.029523974 11119017
0.56796956 0.2765767 -0.02865825 11119017
0.56814927 0.27843428 -0.028443754 11119017
0.5683291 0.2802918 -0.028229197 11119017
0.56918722 0.28166974 -0.027364474 11119017
0.56936675 0.28352502 -0.027150156 11119017
0.5688684 0.28586441 -0.027585629 11119017
0.56837064 0.28820857 -0.028020361 11119017
0.56855065 0.29006839 -0.027805498 11053224
0.56805331 0.2924194 -0.028239653 11053224
0.56755668 0.29477507 -0.028673116 11119017
0.56706029 0.29713532 -0.029106054 11119017
0.5665645 0.29950023 -0.029538454 11119017
0.56606907 0.30186972 -0.029970303 11250603
0.56557411 0.30424389 -0.030401655 11250603
0.56507957 0.30662271 -0.03083249 11250603
0.56526113 0.30849874 -0.030615818 11250603
0.5647673 0.31088451 -0.031045875 11250603
0.5649491 0.3127628 -0.03082896 11250603
0.56513095 0.31464121 -0.030611906 11250603
0.5646379 0.31703621 -0.031040937 11250603
0.56414539 0.31943575 -0.031469315 11250603
0.5643276 0.32131878 -0.031251837 11316139
0.565184 0.32267824 -0.03038927 11316139
0.56469208 0.32508469 -0.03081687 11184553
0.56487429 0.32696775 -0.030599408 11250603
0.56505656 0.32885072 -0.03038189 11316139
0.56456566 0.33126655 -0.030808471 11184553
0.56474805 0.33315191 -0.030590748 11316139
0.56425786 0.33557457 -0.031016495 11250603
0.56444061 0.33746219 -0.030798526 11250603
0.5639509 0.33989188 -0.031223424 11250603
0.56413382 0.3417818 -0.031005107 11316396
0.56364495 0.3442184 -0.031429224 11382189
0.56382805 0.34611064 -0.03121068 11316396
0.56333983 0.34855425 -0.031634096 11316396
0.56285197 0.3510024 -0.03205682 11316396
0.56303549 0.35289925 -0.031837806 11250603
0.56321907 0.35479614 -0.031618681 11250603
0.56273222 0.35725355 -0.032040417 11250856
0.56291604 0.35915273 -0.031821094 11119270
0.56309986 0.36105195 -0.031601742 11119270
0.56395346 0.36238363 -0.030742386 11250856
0.56413698 0.36428046 -0.030523313 11119270
0.5643205 0.36617738 -0.030304229 11250856
0.56450409 0.36807424 -0.030085111 11119270
0.56468773 0.36997113 -0.029866049 11119270
0.56554002 0.37128899 -0.029008349 11316649
0.56639177 0.37260208 -0.028151056 11382442
0.56657493 0.37449434 -0.027932528 11316649
0.56742609 0.37580058 -0.027076067 11316396
0.56760895 0.37769055 -0.026857784 11513518
0.56779182 0.37958053 -0.026639547 11447725
0.56797475 0.38147044 -0.026421271 11447725
0.56815755 0.38336036 -0.026203016 11381932
0.56900746 0.38465273 -0.02534822 11381932
0.56852341 0.38714021 -0.025766419 11447982
0.56937277 0.38842797 -0.024912179 11447982
0.5688892 0.39092007 -0.025329931 11382189
0.56840616 0.39341679 -0.025747061 11382189
0.56792349 0.39591822 -0.026163759 11382189
0.56810683 0.39781281 -0.025944961 11513775
0.56829023 0.39970738 -0.025726173 11513775
0.56780839 0.40221804 -0.026141739 11382189
0.56799197 0.40411487 -0.0259226 11447982
0.5675109 0.40663242 -0.026337411 11447982
0.56769472 0.40853161 -0.026118066 11316396
0.56787854 0.41043079 -0.025898719 10987433
0.56806237 0.41233 -0.025679391 11447984
0.56824613 0.41422918 -0.025460046 11579570
0.56776643 0.41676068 -0.025873207 11513777
0.56728715 0.41929674 -0.026285879 11382961
0.56747139 0.42120054 -0.026065979 11317168
0.56765562 0.42310432 -0.025846122 11382961
0.56717712 0.4256497 -0.026257724 11580340
0.56669915 0.42819968 -0.02666875 11382961
0.56688392 0.43010807 -0.026448335 11382961
0.56640661 0.43266496 -0.026858607 11317168
0.56592983 0.43522647 -0.027268255 11382961
0.56611502 0.4371396 -0.027047256 11186352
0.57057124 -0.38280118 -0.04248343 10856098
0.57073092 -0.38115183 -0.042292915 10658719
0.57165116 -0.37911454 -0.041350391 10724255
0.57105011 -0.37785313 -0.041911911 10724255
0.57120973 -0.37620375 -0.041721437 10592926
0.57136935 -0.3745544 -0.041530926 10592926
0.57152903 -0.37290508 -0.041340414 10592926
0.57168859 -0.37125573 -0.041149944 10592926
0.57184821 -0.36960635 -0.040959407 10461340
0.57200778 -0.36795697 -0.040768996 10461857
0.5721674 -0.36630765 -0.040578447 10461857
0.57232696 -0.36465827 -0.040387973 10461087
0.57248664 -0.36300895 -0.040197529 10526880
0.57340443 -0.36099708 -0.039257959 10724002
0.57356381 -0.35935009 -0.039067719 10724002
0.57372326 -0.35770306 -0.038877536 10658209
0.57388258 -0.356056 -0.038687289 10592416
0.57479924 -0.35405579 -0.037749048 10658209
0.57495844 -0.35241103 -0.037559066 10526880
0.57587433 -0.35041782 -0.036621653 10526880
0.57603329 -0.34877542 -0.036432005 10526880
0.57619226 -0.34713304 -0.036242254 10461087
0.57635111 -0.34549057 -0.036052622 10526880
0.57651019 -0.34384817 -0.035862867 10526882
0.5766691 -0.34220579 -0.035673223 10592675
0.576828 -0.34056333 -0.035483595 10461087
0.57698697 -0.33892095 -0.035293844 10461087
0.57714593 -0.33727852 -0.03510417 10526880
0.57730484 -0.33563611 -0.034914441 10526880
0.57821834 -0.33366826 -0.033980001 10395547
0.57837707 -0.33202815 -0.033790596 10395547
0.5785358 -0.3303881 -0.033601154 10527133
0.57869452 -0.32874796 -0.033411749 10461340
0.57885325 -0.32710785 -0.033222325 10527133
0.57976544 -0.32515389 -0.032289423 10461340
0.57992393 -0.32351616 -0.032100271 10461340
0.58008242 -0.32187834 -0.031911094 10395547
0.5794881 -0.32054749 -0.032464679 10395547
0.57964683 -0.31890735 -0.032275233 10461087
0.57905328 -0.31756952 -0.032827884 10461340
0.57921219 -0.31592709 -0.032638151 10329754
0.5786193 -0.31458232 -0.033190042 10198168
0.57877851 -0.31293759 -0.033000086 10132375
0.57743478 -0.31187892 -0.034292269 10461340
0.5775944 -0.31022954 -0.034101777 10461340
0.57700312 -0.30886853 -0.03465173 10592926
0.5764122 -0.30750293 -0.035201237 10658462
0.57582176 -0.30613276 -0.035750195 10724255
0.57598209 -0.30447641 -0.035558939 10658462
0.57464218 -0.30337834 -0.036846492 10658209
0.57405311 -0.30199429 -0.037393827 10592416
