# .PCD v0.7 - Point Cloud Data file format
VERSION 0.7
FIELDS x y z rgb
SIZE 4 4 4 4
TYPE F F F U
COUNT 1 1 1 1
WIDTH 1087
HEIGHT 1
VIEWPOINT 0 0 0 1 0 0 0
POINTS 1087
DATA ascii
0.50478536 0.1551351 0.0095151877 16711671
0.51382607 0.15451068 0.013275135 16711671
0.52184129 0.15408354 0.016614672 16776431
0.52676445 0.1543449 0.018690988 15459800
0.52962542 0.15507151 0.019925147 13877436
0.53042173 0.15627748 0.020316709 12429990
0.53225267 0.15722963 0.021129867 11772832
0.5351193 0.15792097 0.022364704 11312281
0.53798831 0.15859815 0.023599833 10392976
0.5408597 0.15926129 0.024835255 9471874
0.54269773 0.16016886 0.025649274 8550770
0.55155957 0.16063975 0.029386729 8090732
0.55340421 0.16150734 0.030201603 7103837
0.55628747 0.16209754 0.031438492 6907230
0.55813569 0.1629439 0.032253839 6841437
0.55790997 0.1643261 0.032225449 6644571
0.55768424 0.16570821 0.032197066 6578778
0.56057394 0.16625853 0.033434782 6447962
0.47204447 -0.081748739 -0.017297894 6184018
0.46982235 -0.080303386 -0.018165018 6184018
0.46759871 -0.078848593 -0.019032368 6052432
0.46732274 -0.077158496 -0.019067077 5790030
0.46899685 -0.075247243 -0.01826885 5921616
0.47067228 -0.073345378 -0.017470503 5790030
0.47527677 -0.071135238 -0.015422238 5724237
0.48086119 -0.068845063 -0.012956942 5724239
0.48840335 -0.066380695 -0.0096577797 5461067
0.49595162 -0.063953936 -0.0063577853 5591883
0.50252867 -0.061661329 -0.0034738488 5657676
0.51008886 -0.059307452 -0.00017238714 5787977
0.5166772 -0.057082959 0.0027130437 9932936
0.52424914 -0.054801945 0.0060159508 12956071
0.52693307 -0.052993987 0.0072350129 12232348
0.53157783 -0.051030677 0.0092882998 12428184
0.53720599 -0.049008463 0.011759128 13283493
0.53989881 -0.047254574 0.01297929 14401720
0.54259396 -0.045514785 0.014199725 10060927
0.54431057 -0.043864433 0.015003288 6179140
0.54700994 -0.042150497 0.016224258 5260868
0.54873008 -0.040521305 0.017028242 5524040
0.55143362 -0.038833227 0.018249769 5591116
0.55315715 -0.037225176 0.019054201 5985874
0.55389959 -0.035690133 0.019441415 4801852
0.55365974 -0.034221012 0.019411229 4078129
0.55341977 -0.032751895 0.019381069 5129020
0.55219603 -0.031339299 0.018933322 5655364
0.54998732 -0.029976208 0.018067854 4534828
0.54679245 -0.028655512 0.016784566 4271656
0.54162532 -0.027419701 0.014665564 6770495
0.53645426 -0.026160352 0.012546089 11573384
0.53127962 -0.024877522 0.010426127 13809056
0.52708697 -0.023528764 0.0087234909 13677470
0.521905 -0.022201242 0.0066026407 14531495
0.51869285 -0.020774771 0.0053171497 15057839
0.51449108 -0.0193696 0.0036134019 16307393
0.51028639 -0.017945595 0.0019092769 16373186
0.50706649 -0.016472142 0.00062280294 16637383
0.50285596 -0.015012883 -0.0010820377 16770511
0.50062001 -0.013482874 -0.0019509012 16772299
0.49640408 -0.011990723 -0.0036564469 16772813
0.49317479 -0.010458471 -0.0049440893 16773324
0.49093297 -0.0088932384 -0.0058136974 16178617
0.48670903 -0.007351696 -0.0075202244 16109744
0.48248193 -0.0057913689 -0.0092272181 16175537
0.47825184 -0.0042122384 -0.010934533 16042418
0.47401866 -0.002614297 -0.012642266 14792351
0.46978238 -0.00099756441 -0.014350326 14002585
0.46752763 0.00064762309 -0.015221555 13870999
0.46328598 0.0022972689 -0.016930319 13871769
0.45804825 0.0039656013 -0.019058235 13740183
0.45380008 0.0056552035 -0.020767821 13543317
0.45153651 0.0073544481 -0.021640159 13740696
0.44728297 0.0090769632 -0.023350451 13806489
0.44501549 0.01079973 -0.024223307 13477524
0.43976155 0.012566772 -0.026353223 13938075
0.44147134 0.014259421 -0.025550479 14332833
0.43919969 0.01600806 -0.026423922 14398624
0.43692651 0.017766038 -0.027297409 14596003
0.4346517 0.01953348 -0.028171184 15319726
0.43636307 0.021216713 -0.027368275 16569793
0.43608132 0.022942051 -0.027403709 16770254
0.43779489 0.024611222 -0.026600575 16772567
0.43751392 0.026331855 -0.026635913 15324355
0.20860976 0.13277467 -0.11801027 6053200
0.20824704 0.13499595 -0.11805591 6184786
0.21093257 0.13679454 -0.11683664 6315602
0.21057101 0.13900881 -0.11688215 6315602
0.21427688 0.1406406 -0.11524071 6512981
0.20984787 0.14343731 -0.11697306 6512981
0.21762721 0.14444901 -0.11364403 6382165
0.55065709 0.11188016 0.025203925 6974302
0.54838014 0.11366167 0.024329931 10527124
0.54814762 0.11508612 0.024300694 14803923
0.54791498 0.11651058 0.024271425 16580334
0.54665858 0.11812299 0.023819556 16711671
0.54437739 0.11993036 0.022945013 16711671
0.54311913 0.12155451 0.022492936 16711671
0.53776044 0.12396324 0.02034986 16711671
0.53444844 0.12600085 0.019051814 16711673
0.52908301 0.12845197 0.016907861 16711673
0.52268749 0.13112856 0.014340545 16711675
0.51526099 0.13403781 0.01134973 16711675
0.51193637 0.136153 0.010050081 16711675
0.50655502 0.13870043 0.0079041682 16711675
0.50014228 0.14148284 0.0053346669 16711675
0.49269712 0.14450723 0.0023414679 16711675
0.4831897 0.14799683 -0.0014986773 16711675
0.47959098 0.15179029 -0.0028327825 16711675
0.48242277 0.15269326 -0.001595116 16711675
0.48834649 0.15290555 0.00091283751 16711675
0.49530506 0.15286174 0.0038447867 16711675
0.49814644 0.15370591 0.0050836452 16711675
0.50511438 0.15360565 0.0080167903 16711675
0.51002467 0.15394239 0.010103494 16711673
0.51700234 0.153781 0.013037855 16711673
0.52295339 0.15382637 0.015549284 16776435
0.52787644 0.15408553 0.017637603 14341837
0.52970439 0.15505423 0.01845515 12496553
0.53256726 0.15576677 0.019696683 11312279
0.53543234 0.15646529 0.020938484 10786196
0.54036802 0.15664685 0.023028392 9930887
0.54427314 0.15705866 0.024694856 8748151
0.54714626 0.15770775 0.025937669 8287600
0.55209231 0.15782589 0.028028868 8551283
0.55704218 0.15792049 0.030120578 8551283
0.56303197 0.15772845 0.032636851 7235423
0.56695348 0.15803918 0.034305356 7038044
0.5688045 0.15886681 0.035125833 6841435
0.56858265 0.16022544 0.035097916 6709849
0.56836087 0.16158412 0.035070032 6578778
0.56917685 0.16266789 0.035466492 6578778
0.57207036 0.16319238 0.036711913 6447962
0.57185012 0.16454162 0.036684193 6447962
0.48365325 -0.085412949 -0.014291691 6381395
0.47949278 -0.084257029 -0.015999809 6381395
0.47727513 -0.082837544 -0.016871193 6315602
0.47505584 -0.081408694 -0.017742749 6118223
0.47672999 -0.079499722 -0.01693972 6118225
0.47645748 -0.077830806 -0.016973995 6118225
0.47618493 -0.076161869 -0.017008269 5921616
0.47591242 -0.074492961 -0.017042544 5921616
0.47563997 -0.072824031 -0.017076815 5724237
0.48122132 -0.070519581 -0.014597556 5724237
0.48680726 -0.068243332 -0.012117658 5724239
0.4943507 -0.065792866 -0.008799131 5592653
0.50190026 -0.063380003 -0.0054798904 5657676
0.50652438 -0.061294306 -0.0034171664 5591883
0.51604015 -0.058761276 0.00074180664 6774357
0.52067393 -0.056734342 0.0028057408 10919316
0.52726811 -0.054551974 0.0057086241 12890278
0.53093165 -0.052663866 0.0073542777 12298141
0.5355773 -0.050709814 0.0094196461 12230035
0.53826773 -0.048944086 0.010646719 14203825
0.54194039 -0.047112387 0.012293479 14861755
0.54463601 -0.045377214 0.01352119 10521732
0.54635322 -0.043731485 0.014329644 6705738
0.54905272 -0.042022206 0.015557792 5392194
0.55077344 -0.040397633 0.016366657 5523780
0.55347729 -0.038714197 0.017595371 5787979
0.55421931 -0.037176751 0.017984921 5064256
0.55397934 -0.035707641 0.017954761 4011055
0.55570531 -0.034116004 0.018764248 3813676
0.55349958 -0.032769401 0.017894419 4272941
0.55325973 -0.031300262 0.01786422 4536113
0.55203569 -0.029885357 0.017414058 5192499
0.5498265 -0.028517598 0.01654378 7166289
0.54466116 -0.027288962 0.014413018 11638918
0.54146242 -0.025942519 0.013122039 13283743
0.53629017 -0.024671568 0.010990469 14400423
0.53111416 -0.023377134 0.0088583147 14795181
0.52692062 -0.022019049 0.0071460274 14202530
0.52173722 -0.020679925 0.0050130123 14070944
0.51852429 -0.019246509 0.0037202502 15123632
0.51432157 -0.017832039 0.0020067897 16110527
0.5101158 -0.01639876 0.00029294641 16438977
0.50689524 -0.014918305 -0.0010007637 16570563
0.50466102 -0.013397782 -0.0018741864 16769476
0.50044721 -0.011915122 -0.0035890737 16771789
0.49623019 -0.010413682 -0.0053043086 16770242
0.493 -0.0088744834 -0.0065992433 15979441
0.48877734 -0.0073377667 -0.008315241 16109231
0.48455149 -0.0057822634 -0.0100316 16372403
0.48032284 -0.0042079301 -0.011748305 15910830
0.47410804 -0.0026339025 -0.014307312 14200212
0.46987224 -0.0010172841 -0.016024897 13739411
0.46563351 0.00061814638 -0.017742889 13870997
0.46337661 0.0022773738 -0.018619174 13543317
0.45813951 0.0039455737 -0.020758962 13411731
0.45587859 0.0056306664 -0.021635737 12820110
0.45162857 0.0073342472 -0.023355169 13149075
0.44936365 0.0090428581 -0.024232496 13215122
0.44709721 0.010760835 -0.025109924 13083536
0.44482923 0.012488237 -0.025987668 13346708
0.44455025 0.014197116 -0.02602273 13149329
0.44427115 0.015906006 -0.026057858 13083536
0.44100416 0.017670853 -0.027357364 13346708
0.44072402 0.019386804 -0.027392602 12886157
0.44044378 0.021102736 -0.027427845 13412501
0.44016358 0.022818664 -0.027463084 14202530
0.43988344 0.0245346 -0.027498322 16439492
0.43960318 0.026250532 -0.027533565 15851213
0.4423179 0.027868191 -0.026303522 12298391
0.21583679 0.13179488 -0.11729074 6250581
0.21547677 0.13399974 -0.11733601 6184788
0.21511674 0.13620457 -0.1173813 6184786
0.21882197 0.13783652 -0.1157304 6316372
0.22151366 0.13959515 -0.1145032 6316372
0.21810499 0.14222741 -0.11582058 6382165
0.22079891 0.14397198 -0.11459308 6447958
0.2245131 0.14554982 -0.11294107 6382165
0.23433974 0.14617884 -0.10874297 6382165
0.54813397 0.10954513 0.022551524 6382419
0.54892278 0.11079576 0.022947008 7237728
0.5486902 0.11222024 0.022917738 11975081
0.5484575 0.11364469 0.022888482 16383212
0.54822499 0.11506914 0.022859246 16711667
0.54799247 0.11649362 0.02282998 16711667
0.54673606 0.11810599 0.022375725 16711673
0.54650307 0.11953282 0.022346437 16711673
0.54422146 0.12134483 0.021467026 16711673
0.54091328 0.12336119 0.020162273 16711673
0.53760302 0.12539168 0.0188573 16711675
0.53429019 0.12743622 0.017551981 16711675
0.5268715 0.13030295 0.014545404 16711675
0.52252638 0.13258949 0.012814038 16711675
0.5202316 0.13448144 0.011932934 16711675
0.51690811 0.13659184 0.010626339 16711675
0.50717092 0.14149621 0.0067356555 16711675
0.50178283 0.14408821 0.0045769187 16711675
0.49639103 0.14670366 0.0024176473 16711675
0.49408236 0.14868023 0.0015348769 16711675
0.49794856 0.14932722 0.0032059744 16711675
0.49872842 0.15063195 0.0036002961 16711675
0.50465977 0.15079267 0.0061235926 16711675
0.50544327 0.15207621 0.0065183593 16711675
0.51035094 0.15242483 0.0086167064 16711675
0.51423138 0.15298484 0.010289668 16711673
0.51914644 0.15328881 0.012388906 16711673
0.52509737 0.15332963 0.014914683 16776949
0.52795565 0.15406814 0.01616287 14605009
0.53081614 0.15479256 0.017411254 11838623
0.53264582 0.15574953 0.018233823 10391177
0.5355106 0.15644814 0.019482756 9864835
0.54147959 0.15637848 0.022010861 8614768
0.54745322 0.15628059 0.024539487 7958635
0.56436622 0.15607855 0.031702396 7169630
0.57139373 0.15560715 0.034659781 6907228
0.57531798 0.15589918 0.036338229 6709849
0.57717162 0.15670808 0.037163787 6776155
0.57695293 0.1580479 0.03713629 6578776
0.57673413 0.15938775 0.037108757 6578778
0.5765152 0.16072756 0.037081234 6578778
0.57629651 0.1620674 0.037053719 6644571
0.48790005 -0.086569659 -0.014248946 6512981
0.48568732 -0.085178427 -0.015124481 6512981
0.48541781 -0.08352834 -0.015158372 6315602
0.48320273 -0.082123019 -0.016034169 6315604
0.48098603 -0.080708295 -0.016910193 6315604
0.48266229 -0.078813374 -0.016102141 6184018
0.48239207 -0.07715857 -0.016136125 6052432
0.4821218 -0.075503759 -0.016170112 6052432
0.47990218 -0.074070215 -0.017046547 5986639
0.48353168 -0.071977504 -0.015395562 5592651
0.48521325 -0.070115507 -0.014586835 5592651
0.49080008 -0.067848489 -0.012092484 5724237
0.50029653 -0.065204702 -0.0079119438 5592651
0.50491744 -0.063102394 -0.0058377082 5723467
0.51247323 -0.060733981 -0.0024984796 5526088
0.51905769 -0.058497354 0.00041994281 7760992
0.52466965 -0.056385502 0.0029174231 11642779
0.53126466 -0.054212317 0.0058372323 12757662
0.53590775 -0.052246388 0.0079142628 12099732
0.53859675 -0.050473511 0.0091482913 13216415
0.54226732 -0.04863229 0.010804411 15321791
0.54300183 -0.047050171 0.01119542 14730169
0.54667747 -0.045239534 0.012852157 13349032
0.5474146 -0.043673865 0.013243485 10519933
0.54913336 -0.042039864 0.014056861 8483178
0.551835 -0.040344574 0.015292543 6706767
0.55355734 -0.038731698 0.01610636 5195327
0.55429912 -0.037194248 0.016498286 4405811
0.55602413 -0.035597853 0.017312471 3945262
0.55578494 -0.034133431 0.017282363 3813676
0.55554575 -0.032669012 0.017252285 4535598
0.55530673 -0.031204589 0.017222216 6114630
0.55506754 -0.029740173 0.017192153 8810848
0.55187535 -0.028431416 0.015894823 11442568
0.54966563 -0.027059017 0.015019682 13348505
0.54449904 -0.025818763 0.012876796 13085333
0.54129946 -0.024465363 0.011578556 14728870
0.53612602 -0.023182783 0.0094347885 15386800
0.5309487 -0.021876721 0.0072905612 13939870
0.52675408 -0.020509379 0.0055685258 11571322
0.52354354 -0.019087778 0.0042688809 11307900
0.51835579 -0.017718233 0.0021233202 13610655
0.51415193 -0.016294487 0.00040017135 15584181
0.50994521 -0.014851901 -0.0013233846 16373697
0.50870091 -0.013312446 -0.00177849 16766909
0.50448912 -0.011839315 -0.0035026467 16768194
0.50027418 -0.010347391 -0.0052272109 16767935
0.49605632 -0.0088366326 -0.006952167 16437428
0.4928253 -0.007290455 -0.0082544209 16305840
0.48662069 -0.0057730041 -0.010826454 16766391
0.48239306 -0.0042035198 -0.012552626 16436914
0.47617999 -0.002634343 -0.015125751 14726296
0.46996218 -0.0010369841 -0.017699433 13477011
0.46572393 0.00059833191 -0.019426949 13016460
0.46346727 0.0022575033 -0.020307997 12820110
0.46120927 0.0039260769 -0.021189228 12885903
0.45597017 0.0056105992 -0.023341283 12425867
0.4537077 0.007305013 -0.024222998 12162695
0.45144385 0.00900885 -0.025104987 12294279
0.44917843 0.010722095 -0.025987141 12294279
0.45089042 0.012398412 -0.025174594 12623244
0.44862354 0.014121063 -0.02605691 12689037
0.44834596 0.015820513 -0.026091814 12557451
0.44806844 0.017520001 -0.026126746 12360072
0.44779089 0.019219495 -0.026161652 12294279
0.44552013 0.020965613 -0.027044449 12360072
0.44524193 0.022669801 -0.027079474 12492172
0.44496366 0.02437398 -0.027114443 14400169
0.44668084 0.026017392 -0.026301259 14667454
0.44640335 0.027716866 -0.026336132 12891043
0.44612595 0.029416345 -0.026371028 7960177
0.44584841 0.031115824 -0.026405964 6446938
0.22377661 0.12643872 -0.11644805 6316374
0.22037522 0.12902854 -0.11777168 6250581
0.22001675 0.13122396 -0.11781676 6316374
0.21965824 0.13341942 -0.11786185 6250581
0.22234717 0.1351923 -0.1166278 6250579
0.22198983 0.13738072 -0.11667274 6316372
0.22163248 0.1395691 -0.11671768 6250579
0.22534311 0.14116582 -0.11505654 6382165
0.22498724 0.14334482 -0.11510132 6447958
0.22768472 0.14506602 -0.1138662 6447958
0.24158375 0.14506842 -0.10793748 6447958
0.54844445 0.10810131 0.021137027 6446675
0.54821146 0.10952812 0.021107724 7632741
0.5490002 0.11077881 0.021505559 13225146
0.54876757 0.11220329 0.021476289 16515058
0.54853505 0.11362774 0.021447023 16580595
0.55034775 0.11468586 0.022272253 16711671
0.55011594 0.1161056 0.02224311 16711671
0.54783726 0.11790112 0.021359291 16711673
0.54760456 0.11932557 0.021330019 16711673
0.54429924 0.12132777 0.020018451 16711675
0.54304069 0.12295417 0.019561559 16711675
0.53870648 0.12517716 0.017821958 16711675
0.53539455 0.12721932 0.01650955 16711675
0.5310545 0.12947756 0.014769251 16711675
0.52671146 0.13175461 0.013028585 16711675
0.52339184 0.13384371 0.011715229 16711675
0.52212387 0.13552894 0.011257135 16711675
0.51982766 0.13743022 0.010371086 16711675
0.51650244 0.13955463 0.0090570403 16711675
0.51111847 0.14212534 0.0068868087 16711675
0.50675935 0.14450105 0.0051441155 16711675
0.50548357 0.14623328 0.0046850364 16711675
0.50626582 0.14752395 0.0050820378 16711675
0.50807816 0.14858441 0.0059072073 16711675
0.50989217 0.14963549 0.0067325728 16711675
0.51067728 0.15090728 0.0071299821 16711675
0.51455563 0.15147682 0.0088121798 16711675
0.51740581 0.15226248 0.010066479 16711673
0.52025825 0.15303397 0.011321114 16711673
0.52517694 0.15331219 0.013432794 16776949
0.53009933 0.15356694 0.015544975 15262939
0.53089494 0.15477529 0.015943648 12299172
0.53375733 0.15548567 0.017199539 10128003
0.53765565 0.15593296 0.018884262 8417900
0.54155695 0.15636152 0.020569412 8023142
0.56362933 0.15495025 0.029914992 7169630
0.57065308 0.15449782 0.032888673 6972251
0.57871783 0.15374933 0.036291905 6644569
0.58368021 0.15375958 0.03840914 6644569
0.58657342 0.15428199 0.039668821 6644569
0.58532113 0.15587078 0.039212737 6644569
0.58718008 0.15664683 0.040043768 6644569
0.58488971 0.15851286 0.03915846 6644569
0.584674 0.15983386 0.039131332 6578778
0.48993263 -0.086330265 -0.015067547 6512981
0.48966473 -0.084689558 -0.015101271 6447188
0.48939675 -0.08304885 -0.01513494 6381395
0.48718339 -0.081652999 -0.016015338 6381395
0.48691472 -0.080007575 -0.01604913 6381395
0.49054 -0.077891238 -0.014389129 6315604
0.48832512 -0.076485999 -0.015269721 6118225
0.48610869 -0.07507135 -0.016150506 6052432
0.48778927 -0.073204577 -0.015337111 6052432
0.48752144 -0.071563862 -0.015370834 5986639
0.4931058 -0.06928727 -0.012862371 5855053
0.49869487 -0.067038916 -0.010353384 5855053
0.50331229 -0.064920031 -0.0082675917 5855053
0.5108633 -0.062527865 -0.0049098246 5986128
0.5164665 -0.060366489 -0.0023990266 5459784
0.52305168 -0.058139052 0.00053625583 8353129
0.52768683 -0.056128282 0.002624271 11511193
0.5323258 -0.054141041 0.0047127544 12166295
0.53794712 -0.052090127 0.0072258124 12890018
0.54259413 -0.050152227 0.0093153361 15717064
0.54332811 -0.048567727 0.0097086625 15651271
0.54504246 -0.046907812 0.010526286 14598070
0.54773843 -0.045179509 0.011768392 13480102
0.54945618 -0.043540765 0.012586436 13019551
0.55117553 -0.041911379 0.01340472 11902869
0.55387759 -0.040220711 0.014647566 10718595
0.55461884 -0.038680878 0.015041822 8943211
0.55634272 -0.037079699 0.015860667 7561558
0.55806816 -0.035487961 0.016679702 7166800
0.55782986 -0.034028236 0.016649714 7824730
0.55759144 -0.032568526 0.016619731 9534573
0.55735308 -0.031108797 0.016589753 11574156
0.55711472 -0.02964909 0.016559776 12822422
0.55490798 -0.028293204 0.015680218 13348766
0.55171502 -0.026977465 0.014375601 13544085
0.54851985 -0.025647646 0.013070728 14136222
0.54433686 -0.024348564 0.011340584 15253933
0.53916508 -0.023073211 0.0091850935 15122347
0.53596181 -0.02169399 0.0078791603 14728874
0.5307833 -0.020376313 0.0057227956 11570810
0.52658761 -0.01899969 0.0039910567 9860200
0.52337623 -0.017571118 0.0026841369 9860200
0.51917499 -0.016159227 0.00095170143 12163209
0.51595867 -0.014700091 -0.00035584305 14794929
0.51372832 -0.013200833 -0.0012383866 15911602
0.50853008 -0.01176327 -0.0033972051 16372153
0.50431734 -0.010280839 -0.0051310742 16766393
0.50010139 -0.0087796217 -0.0068653505 16503221
0.49588236 -0.0072596013 -0.008600031 16502705
0.49066994 -0.0057350607 -0.010760651 16766648
0.48446289 -0.0041989847 -0.01334736 16634293
0.48023358 -0.0026154846 -0.015083308 14199952
0.47401822 -0.0010276783 -0.017671132 13016460
0.46978182 0.00059811608 -0.019407989 12555909
0.46752712 0.0022478506 -0.020293565 12228488
0.46527085 0.003906949 -0.021179337 12228488
0.46301296 0.0055754767 -0.022065336 11702404
0.46075356 0.0072533847 -0.022951556 11307646
0.45749879 0.0089475587 -0.024263931 11439232
0.45523599 0.010646642 -0.025150524 11702404
0.45496079 0.012332002 -0.025185136 11834244
0.45468557 0.014017374 -0.025219779 12031623
0.45441043 0.015702758 -0.025254359 12097416
0.4541353 0.017388141 -0.025288967 11636865
0.45186776 0.019115422 -0.026176207 11702658
0.44959882 0.020852102 -0.027063571 11702658
0.44932207 0.022546886 -0.027098376 11769480
0.44904533 0.024241654 -0.027133182 12756375
0.44876859 0.025936438 -0.027167989 11904668
0.44849184 0.027631221 -0.027202794 11707289
0.45021191 0.029255893 -0.026384462 9013384
0.44993594 0.030945972 -0.02641917 7434352
0.44965991 0.032636013 -0.026453882 6447967
0.45138317 0.034241896 -0.025635097 6184795
0.22866376 0.12152889 -0.11685875 6447190
0.22830795 0.12370791 -0.11690353 6447190
0.22389545 0.12641264 -0.11866251 6316374
0.2235381 0.12860103 -0.11870746 6316374
0.2231808 0.13078946 -0.1187524 6316374
0.22282346 0.13297789 -0.11879734 6250581
0.22246607 0.13516626 -0.11884229 6316374
0.2261731 0.1367819 -0.11717206 6316374
0.22581729 0.13896091 -0.11721681 6316372
0.22546148 0.14113989 -0.1172615 6382165
0.2322263 0.14226727 -0.11430364 6447958
0.23187318 0.14442979 -0.11434805 6447958
0.24170001 0.14504296 -0.11010203 6447958
0.54875499 0.10665755 0.019722518 6512981
0.54852206 0.10808432 0.019693216 8026220
0.548289 0.10951114 0.019663895 13883846
0.54907751 0.11076182 0.020064106 16515054
0.54884487 0.11218631 0.020034866 16580599
0.55065674 0.1132492 0.020864723 16580599
0.55042481 0.11466893 0.020835562 16580601
0.55019313 0.1160887 0.020806426 16580601
0.54996121 0.11750845 0.02077725 16711675
0.54972947 0.11892822 0.02074811 16711675
0.54744935 0.12073307 0.019859346 16711675
0.54619211 0.12235242 0.019400174 16711675
0.54288447 0.12437098 0.018081155 16711675
0.54059976 0.12620406 0.017191796 16711675
0.53728789 0.12824847 0.015872201 16711675
0.53397357 0.13030697 0.014552371 16711675
0.53168356 0.13217293 0.013662307 16711675
0.53041875 0.13383934 0.013202218 16711675
0.528126 0.13572173 0.012311846 16711675
0.52480406 0.13782726 0.010991009 16711675
0.51942384 0.140379 0.0088092899 16711675
0.51609665 0.14251742 0.0074877953 16711675
0.51585335 0.1440077 0.0074571925 16711675
0.51560998 0.14549796 0.0074265869 16711675
0.51536667 0.14698827 0.0073959804 16711675
0.51615316 0.14825074 0.0077959029 16711675
0.51591021 0.14973867 0.0077653453 16711675
0.51978993 0.15029654 0.0094573488 16711675
0.52057952 0.15154025 0.0098576862 16711673
0.52343285 0.15230475 0.01111957 16711673
0.52732003 0.15281567 0.012812484 16776692
0.53017831 0.15354961 0.014075007 15131353
0.53097373 0.15475802 0.014476058 13813178
0.53280294 0.15571514 0.015308137 10918286
0.53566682 0.15641385 0.016571362 8417898
0.54163438 0.15634455 0.019127993 7825761
0.56370401 0.1549339 0.028525889 6973021
0.57176203 0.15422092 0.031947453 6841435
0.58189744 0.15294422 0.036232278 6644569
0.58582437 0.15321298 0.037930205 6644569
0.58768153 0.15399848 0.038765818 6644569
0.5885033 0.15504469 0.039170165 6644569
0.58828878 0.1563587 0.039143182 6644571
0.58807421 0.15767266 0.039116211 6776157
0.58785969 0.15898664 0.039089225 6578778
0.49390742 -0.085831791 -0.015025457 6578774
0.49364111 -0.084200442 -0.015059017 6512981
0.49337468 -0.082569145 -0.015092492 6381395
0.4931083 -0.080937847 -0.015125995 6184016
0.49284199 -0.079306528 -0.015159493 6118223
0.49452221 -0.07743971 -0.014341374 6184016
0.49620408 -0.075582288 -0.013523055 6118223
0.49399099 -0.074186482 -0.014408185 6118223
0.49372539 -0.072559863 -0.014441592 6118223
0.49540952 -0.07071656 -0.013622986 6052432
0.49904579 -0.068670616 -0.011952015 5920846
0.50366068 -0.066539854 -0.0098545616 5920848
0.50925553 -0.064331263 -0.0073304363 5855055
0.51485503 -0.062150877 -0.0048057651 5920335
0.51948214 -0.060095325 -0.0027067969 5591370
0.52606767 -0.057874769 0.0002452984 9339770
0.53168088 -0.055779014 0.0027717047 12037283
0.53632069 -0.053801022 0.0048722508 13482155
0.54096437 -0.051846541 0.0069733541 14863808
0.5436545 -0.050085258 0.0082218926 15651271
0.54732609 -0.048255585 0.0098973205 15256513
0.54806221 -0.046685137 0.01029327 13940140
0.54977894 -0.045041636 0.011115992 12426901
0.55149728 -0.043407515 0.011938927 12361108
0.5522365 -0.041855905 0.012335322 12033685
0.5549385 -0.040167484 0.013585354 11902099
0.55666143 -0.038561568 0.014408853 11508879
0.55838573 -0.036965076 0.01523255 11508879
0.55912971 -0.035441667 0.015629489 11574672
0.55889171 -0.033984292 0.015599571 12101016
0.55865377 -0.032526914 0.015569659 12823453
0.55841577 -0.031069545 0.015539729 12955039
0.55817783 -0.029612178 0.015509784 13544862
0.55695564 -0.028206749 0.015052669 13479069
0.55474842 -0.026846211 0.014168254 13806487
0.55155468 -0.02552353 0.012856351 14398624
0.54835868 -0.024186725 0.011544187 14596001
0.54417473 -0.022878366 0.0098043615 14464415
0.54097372 -0.021511 0.0084915403 14728361
0.53579772 -0.020205213 0.0063235401 12491399
0.53259128 -0.018804949 0.0050099981 9268317
0.52839547 -0.017423712 0.0032687357 8018250
0.52518409 -0.0159929 0.0019545816 9203040
0.52098256 -0.014576396 0.00021255325 12887448
0.51776612 -0.01311502 -0.001102217 15911348
0.5135588 -0.011663278 -0.0028449986 16569278
0.50934845 -0.010192716 -0.0045881369 16700346
0.50414544 -0.0087223975 -0.0067595225 16437174
0.49992853 -0.0072118649 -0.0085035264 16436912
0.49570844 -0.0056825532 -0.010247893 16634291
0.49049482 -0.0041463953 -0.012420653 16568498
0.48428616 -0.0025963967 -0.015021969 14265743
0.47807309 -0.0010181674 -0.017623795 12753801
0.47383887 0.00059812365 -0.019370005 12293250
0.47158584 0.0022383807 -0.020260094 11834244
0.46933135 0.0038880487 -0.021150494 11636865
0.46707532 0.0055471053 -0.022041058 11110267
0.46680427 0.0072066281 -0.022075113 10847095
0.46454599 0.0088797873 -0.022965962 10979451
0.46228603 0.01056235 -0.023857014 11176830
0.46201357 0.01223128 -0.023891287 11111037
0.461741 0.013900192 -0.023925563 11111037
0.46146846 0.015569112 -0.023959808 11374722
0.45920476 0.017275168 -0.024851367 10914171
0.45893148 0.018948808 -0.024885738 10453107
0.45865819 0.020622434 -0.02492008 10189935
0.45539463 0.022372918 -0.026240814 10323319
0.45512024 0.024053611 -0.026275327 10915456
0.45484573 0.02573427 -0.026309816 8352877
0.45457131 0.027414938 -0.026344333 7826533
0.45429686 0.029095607 -0.026378848 8028036
0.4540225 0.030776314 -0.026413361 7962243
0.45374799 0.032456957 -0.026447879 7501944
0.45647192 0.034011409 -0.025195079 6186084
0.45619863 0.035685036 -0.02522945 6185047
0.45592535 0.037358645 -0.025263792 6119254
0.23182195 0.12112287 -0.11777125 6447190
0.22842634 0.12368196 -0.11910853 6381397
0.22807051 0.12586099 -0.11915325 6447190
0.22771472 0.12803997 -0.11919802 6512983
0.22735885 0.13021897 -0.11924278 6382167
0.2270031 0.13239796 -0.11928753 6316374
0.22664723 0.13457696 -0.11933228 6382167
0.22933935 0.13632648 -0.11808345 6316374
0.22898462 0.13849846 -0.11812812 6382167
0.22862998 0.14067034 -0.11817266 6382167
0.23234373 0.14224148 -0.116492 6382167
0.23504303 0.14394633 -0.11524227 6447960
0.24181622 0.14501749 -0.11226658 6447958
0.54883248 0.10664053 0.018278684 7764070
0.54962015 0.10789595 0.018681154 13422268
0.54836655 0.10949414 0.018220069 16515056
0.55119759 0.11039276 0.019486368 16580593
0.55096567 0.11181251 0.019457208 16580599
0.55175596 0.11305154 0.019859996 16580599
0.55152452 0.11446892 0.019830871 16580601
0.55129308 0.11588634 0.019801792 16580601
0.55106163 0.11730374 0.019772669 16711675
0.55083019 0.11872114 0.01974356 16711675
0.55059874 0.12013856 0.019714436 16711675
0.54934287 0.12175082 0.019253105 16711675
0.54706162 0.12356503 0.018359391 16711675
0.54580373 0.12518905 0.017897742 16711675
0.54351974 0.12701972 0.017003687 16711675
0.54020816 0.12906402 0.01567696 16711675
0.53997332 0.13050261 0.015647436 16711675
0.53768498 0.13235909 0.014752829 16711675
0.53642231 0.1340137 0.014290591 16711675
0.53413117 0.13588667 0.013395655 16711675
0.52978289 0.1382011 0.011635153 16711675
0.52748823 0.14009756 0.010739735 16711675
0.52416319 0.14222416 0.0094113331 16711675
0.52392292 0.14369561 0.0093811145 16711675
0.52162385 0.14561793 0.0084851561 16711675
0.52138287 0.14709413 0.0084548574 16711675
0.52114183 0.14857028 0.0084245419 16711675
0.5229618 0.14958149 0.0092602363 16711675
0.52375251 0.15081812 0.0096631031 16711673
0.52557522 0.15181288 0.01049915 16711673
0.52843118 0.1525587 0.011768543 16775406
0.53128928 0.15329045 0.013038234 13551549
0.53105253 0.15474075 0.013008437 13681590
0.53391421 0.15545134 0.014278584 13023660
0.53574497 0.15639673 0.015115645 11181456
0.54171175 0.15632758 0.017686544 8812908
0.55469334 0.15584867 0.023263475 7234908
0.56274384 0.15517591 0.026703231 7103837
0.57080042 0.15446551 0.030143762 6972251
0.57886314 0.15371747 0.033585064 6644569
0.586932 0.15293187 0.037027124 6644569
0.58878928 0.15371506 0.037867516 6644569
0.5916847 0.15421881 0.039141878 6644569
0.59458244 0.1547084 0.040416561 6776157
0.59437019 0.15600826 0.040389881 6776157
0.4978812 -0.085333057 -0.014964444 6578776
0.49955982 -0.083456755 -0.014141688 6578776
0.49929574 -0.081839547 -0.014174931 6381397
0.49903166 -0.080222338 -0.014208113 6315604
0.49876758 -0.078605123 -0.014241355 6381397
0.5004499 -0.07675235 -0.013418183 6184018
0.50213379 -0.074908972 -0.012594757 6118225
0.50187123 -0.073301174 -0.012627776 6184018
0.50160873 -0.071693361 -0.012660796 5986639
0.50329578 -0.069868781 -0.011837036 5986639
0.50400901 -0.068159662 -0.011441532 5920846
0.50960082 -0.065936811 -0.0089034718 5920848
0.51519716 -0.063742153 -0.0063648098 5920848
0.51982176 -0.061674733 -0.0042541795 5788749
0.52542698 -0.059534129 -0.0017144189 5722956
0.53005964 -0.05751605 0.00039725445 9537149
0.53469622 -0.055521462 0.0025094019 11839904
0.53933668 -0.053550381 0.0046220021 12758692
0.54398084 -0.051602807 0.0067351088 13942966
0.5476504 -0.049763609 0.0084198359 14007216
0.54838592 -0.048190806 0.008818144 14270388
0.5501017 -0.046542529 0.009645517 13215647
0.55181909 -0.044903655 0.010473134 12295315
0.55255771 -0.043349668 0.010871858 11703178
0.55427766 -0.041727252 0.011699762 11506312
0.55501837 -0.040184975 0.012098721 11308933
0.556741 -0.038579024 0.012926964 11178630
0.55846512 -0.036982454 0.01375541 11178630
0.55920887 -0.035459008 0.014154756 11178628
0.56093568 -0.033878896 0.014983556 11704972
0.56069851 -0.032426249 0.014953693 12230031
0.56046128 -0.030973578 0.014923889 12427410
0.56022412 -0.029520897 0.014894029 13347221
0.5580191 -0.028172165 0.014005095 13478807
0.55679667 -0.026764426 0.013545566 13740694
0.55458891 -0.025399225 0.012656294 13740694
0.5513944 -0.024069579 0.01133713 13806485
0.54819763 -0.022725813 0.010017653 13674899
0.54401261 -0.021408165 0.0082681086 13939358
0.54081082 -0.020033833 0.0069480455 13741979
0.53563344 -0.018716434 0.0047678533 9729638
0.5324263 -0.017309202 0.0034471143 8150606
0.52822953 -0.01591867 0.0016960831 8084813
0.52501744 -0.014480877 0.00037470474 10650740
0.52081478 -0.013055093 -0.001377075 14924968
0.51759756 -0.011586757 -0.0026991167 16504000
0.51338923 -0.010125703 -0.0044516143 16700346
0.50917786 -0.0086458651 -0.0062044533 16502967
0.50397354 -0.0071639307 -0.0083879828 16436912
0.49975565 -0.0056441077 -0.010141702 16305326
0.49355346 -0.0041295304 -0.012756521 16371381
0.49031955 -0.0025577564 -0.014080662 13739661
0.48410943 -0.00099380792 -0.016696518 12162180
0.4798781 0.00060827378 -0.018451868 12030594
0.47762764 0.0022343732 -0.019346518 11570820
0.47537568 0.003869856 -0.020241331 11307648
0.47312221 0.0055147847 -0.021136396 10979453
0.47086722 0.007169066 -0.022031594 10453109
0.46861061 0.0088327769 -0.022926988 9861485
0.4683404 0.010487611 -0.022961004 9729899
0.4660815 0.012165415 -0.023856686 10058864
0.46581057 0.013824921 -0.023890765 10190450
0.46553949 0.015484412 -0.023924822 10651001
0.46526855 0.017143946 -0.023958931 10651001
0.46300593 0.018845296 -0.024855122 10058866
0.46273416 0.020509496 -0.0248893 9466729
0.46046907 0.022224916 -0.025785759 8876391
0.46019655 0.023893837 -0.025820034 8613219
0.45792925 0.025623377 -0.026716806 6971999
0.45765597 0.027296972 -0.026751207 6314069
0.45738268 0.028970599 -0.026785549 5660771
0.45910648 0.030569518 -0.025957132 6647666
0.45883402 0.03223845 -0.025991404 7108217
0.45856151 0.033907369 -0.026025649 6252908
0.46028841 0.03548748 -0.025196902 6119770
0.46201676 0.037058175 -0.02436791 6119770
0.46174583 0.038717695 -0.024401987 6382169
0.46347654 0.040274315 -0.023572702 6250583
0.24343485 0.11755746 -0.11515958 6512985
0.23903187 0.12021028 -0.11693654 6578778
0.23563932 0.12275281 -0.11828063 6578776
0.23528625 0.12491536 -0.11832503 6512983
0.23493306 0.12707792 -0.11836942 6447190
0.23457995 0.12924044 -0.11841383 6447190
0.23727195 0.13098772 -0.11715785 6512983
0.23692003 0.13314325 -0.11720215 6512983
0.23656802 0.1352987 -0.11724641 6447190
0.23621604 0.13745421 -0.11729068 6512983
0.2399305 0.13901837 -0.11560033 6447190
0.23551217 0.14176518 -0.11737921 6447960
0.23922963 0.14331055 -0.1156885 6447960
0.51166266 0.10984842 0.0008356765 6380882
0.54914296 0.10519674 0.016864173 7038812
0.54890996 0.10662355 0.01683484 11843236
0.54969752 0.10787898 0.01723972 16711662
0.549465 0.10930346 0.017210484 16580595
0.55127472 0.11037585 0.018049652 16580595
0.54899973 0.11215239 0.017151972 16580601
0.55081105 0.11321537 0.017991336 16580601
0.55160147 0.11445203 0.018396547 16580601
0.55137014 0.11586946 0.018367473 16580601
0.55113864 0.11728686 0.018338347 16711675
0.55090725 0.11870426 0.018309226 16711675
0.55067575 0.12012168 0.018280113 16711675
0.5504443 0.12153906 0.018251019 16711675
0.54918814 0.12315363 0.017787246 16711675
0.54895633 0.12457342 0.017758103 16711675
0.54667366 0.12639695 0.016859429 16711675
0.54644114 0.12782143 0.016830178 16711675
0.54518223 0.12945248 0.016366033 16711675
0.54494929 0.13087928 0.01633673 16711675
0.54266238 0.1327287 0.015437511 16711675
0.54140133 0.13437384 0.014973097 16711675
0.53705633 0.13667172 0.01320341 16711675
0.53579253 0.13833329 0.01273869 16711675
0.532471 0.14044102 0.011403521 16711675
0.52914715 0.14256285 0.010068091 16711675
0.52890873 0.14402255 0.010038095 16711675
0.52661127 0.14593779 0.0091375289 16711675
0.52637213 0.14740218 0.0091074547 16711675
0.526133 0.14886664 0.0090773944 16711675
0.52795535 0.14986143 0.0099181999 16711673
0.52874827 0.15108398 0.010323726 16711673
0.53160495 0.15182285 0.011600402 16709100
0.53343207 0.15278944 0.012441807 12893106
0.53319609 0.15423506 0.012412122 13286573
0.53399265 0.15543412 0.012818091 13286573
0.53582317 0.1563796 0.013659912 13615536
0.54075563 0.15656191 0.01580929 12299676
0.54672581 0.15646705 0.018394941 9668987
0.56776905 0.15523131 0.027463378 7103322
0.57582957 0.15449058 0.030923547 6776155
0.58286053 0.15397757 0.033948433 6644569
0.58678824 0.15423484 0.035665628 6578776
0.59071916 0.15447327 0.03738318 6644569
0.59257931 0.15523773 0.038228754 6644571
0.59547818 0.15571804 0.039510757 6578778
0.50573879 -0.084315792 -0.013162985 6644569
0.50547689 -0.082712732 -0.013195884 6644569
0.50521517 -0.081109613 -0.013228808 6381397
0.50592571 -0.079384007 -0.01283125 6381397
0.50566429 -0.077783249 -0.012864158 6381397
0.50734913 -0.07594686 -0.012035853 6184018
0.50903547 -0.074119881 -0.011207384 6118225
0.50877571 -0.072528511 -0.011240063 6184018
0.50851572 -0.070937186 -0.011272781 6118225
0.50825584 -0.069345839 -0.011305432 5986639
0.51189613 -0.067330226 -0.0096147889 5920846
0.51553941 -0.065333433 -0.0079238182 5855055
0.52016145 -0.063254088 -0.005801497 5855055
0.52576357 -0.061099242 -0.0032477751 5985874
0.52844054 -0.059262589 -0.0019864889 5920081
0.5330739 -0.057251412 0.00013721191 9801352
0.53868824 -0.055171773 0.0026924934 11643556
0.54332954 -0.053209946 0.0048171864 12299172
0.54797471 -0.051271636 0.0069424105 10917519
0.54870975 -0.049696464 0.007343051 13151907
0.55238217 -0.047878325 0.0090376865 13678251
0.55311996 -0.046319585 0.0094386833 13149854
0.55287898 -0.044843402 0.0094083846 12426131
0.55459791 -0.043216225 0.010240939 11571590
0.55533803 -0.041671611 0.010642255 11308933
0.55902117 -0.039919257 0.012338242 11045761
0.55976403 -0.038391106 0.012739854 10783359
0.55952609 -0.036933728 0.012709942 10849152
0.56125182 -0.03534887 0.013543389 11309701
0.56101465 -0.033896204 0.013513529 11309701
0.56077749 -0.032443535 0.013483725 11243136
0.56152332 -0.030934174 0.013885705 11572101
0.56030303 -0.029538199 0.013424058 12820623
0.56006581 -0.028085539 0.013394192 13281174
0.5578602 -0.026732173 0.012500427 13544085
0.55663753 -0.0253221 0.012038457 13412499
0.55245924 -0.024042167 0.010280181 13346708
0.54926324 -0.022700844 0.0089536253 13083536
0.54803652 -0.021264903 0.0084911603 13149842
0.54385048 -0.019937959 0.006731886 13610393
0.54064798 -0.018556656 0.005404524 12756114
0.53744304 -0.017161259 0.004076852 9795429
0.53324872 -0.015782613 0.0023165517 7755848
0.53003889 -0.014356649 0.00098827283 8282192
0.52583867 -0.012942727 -0.00077278801 12228227
0.52064693 -0.011533807 -0.0029667062 15978428
0.51742905 -0.010058494 -0.0042959866 16766655
0.51321965 -0.0085881595 -0.0060581882 16502969
0.50900728 -0.0070990142 -0.0078207692 16436660
0.5038017 -0.0056054713 -0.010016413 16370867
0.49760196 -0.0041004536 -0.012645376 15779246
0.49238843 -0.0025575177 -0.014842028 13213319
0.48816213 -0.00098378118 -0.016606353 11636097
0.4839327 0.00060878042 -0.018371098 11636097
0.48168409 0.0022254384 -0.019270284 11111554
0.47943407 0.0038514745 -0.020169629 11045761
0.47718227 0.0054869181 -0.021069268 10388599
0.47492906 0.0071317623 -0.021969033 10388599
0.47267425 0.0087860068 -0.022869024 9665391
0.47240552 0.010431414 -0.02290282 8941668
0.47014847 0.012099754 -0.023803068 8941666
0.469879 0.01374987 -0.023836957 9270631
0.46960962 0.015400008 -0.023870843 9336426
0.46934012 0.017050114 -0.023904735 9468012
0.46707916 0.018741976 -0.024805469 9401965
0.466809 0.020396791 -0.024839452 8546656
0.46454582 0.022102766 -0.025740502 7495513
0.46427476 0.02376228 -0.025774557 7298134
0.46200934 0.025482334 -0.026675895 6841183
0.46173757 0.02714655 -0.026710073 6446425
0.46146584 0.028810766 -0.02674425 5003870
0.46319085 0.030400351 -0.025910914 5793386
0.46291992 0.032059871 -0.025944991 6779767
0.46464723 0.033635326 -0.025111364 6187630
0.46437708 0.035290159 -0.025145316 6185565
0.46610674 0.036851507 -0.024311395 6053979
0.46783796 0.038403463 -0.023477282 6382169
0.46756935 0.040048882 -0.023511071 6382169
0.46930292 0.041586731 -0.022676634 6316376
0.47103795 0.043115191 -0.021842038 6250583
0.24997525 0.11465411 -0.11467419 6578776
0.24962717 0.11678611 -0.11471797 6578776
0.24623999 0.11929803 -0.11606853 6578776
0.24589077 0.12143708 -0.11611246 6578776
0.24250014 0.12397014 -0.11746353 6447190
0.2421497 0.12611628 -0.1175076 6382167
0.24484292 0.12785421 -0.11624425 6382167
0.24449357 0.12999326 -0.11628819 6447960
0.24414435 0.13213231 -0.11633211 6447960
0.24684206 0.13384201 -0.11506825 6447960
0.24344577 0.1364104 -0.11641997 6382167
0.2430965 0.13854939 -0.1164639 6316374
0.25698304 0.13858628 -0.11040266 6382167
0.2759665 0.13779485 -0.10215937 6447960
0.54922056 0.10517974 0.015420347 10723474
0.54898751 0.10660654 0.015391011 16383212
0.54875451 0.10803333 0.015361724 16711665
0.54954225 0.10928649 0.015769029 16580599
0.54930973 0.11071094 0.015739763 16580599
0.55111998 0.1117787 0.016583821 16580601
0.55190998 0.11301776 0.016991368 16580601
0.55167854 0.11443515 0.016962258 16580603
0.55144709 0.11585257 0.016933164 16580603
0.55121559 0.11726996 0.01690405 16580603
0.5509842 0.11868737 0.01687493 16580603
0.55280018 0.11971986 0.017719738 16580603
0.55256963 0.12113256 0.017690748 16580603
0.55028993 0.1229396 0.01678762 16711675
0.55005842 0.12435701 0.016758492 16711675
0.54982704 0.12577441 0.016729372 16711675
0.54959548 0.12719184 0.016700286 16711675
0.548338 0.12881577 0.016233915 16711675
0.54913259 0.13002662 0.016642053 16711675
0.54890108 0.13144404 0.016612943 16711675
0.54764247 0.13307506 0.01614644 16711675
0.5453555 0.13492678 0.015242457 16711675
0.54409486 0.13656954 0.014775692 16711675
0.54077691 0.13865836 0.013433817 16711675
0.53848523 0.14053825 0.012529161 16711675
0.53619212 0.14242756 0.011624389 16711675
0.53492701 0.14409856 0.011157067 16711675
0.53263098 0.14600429 0.010251904 16711675
0.53239423 0.14745462 0.010222122 16711675
0.53215736 0.14890495 0.010192334 16711671
0.53398269 0.14988102 0.011038325 16711671
0.53374672 0.15132663 0.011008655 16577252
0.53454238 0.15253039 0.011416907 13353395
0.5343067 0.15397367 0.011387252 13548973
0.53613621 0.15492389 0.012233754 13154215
0.53796721 0.15586467 0.013080448 13417385
0.54083312 0.15654491 0.014365461 13614764
0.54680258 0.15645023 0.016965413 12037019
0.56473857 0.15599695 0.024768732 6840150
0.57383215 0.15500052 0.028686196 6841435
0.58189702 0.15422712 0.032166041 6841435
0.58685994 0.15421915 0.034331203 6644569
0.59079033 0.15445767 0.03605831 6644569
0.59576052 0.15440506 0.038224388 6578776
0.50873893 -0.083946139 -0.013487016 6578776
0.51042128 -0.082095586 -0.012654265 6447190
0.51210499 -0.080254436 -0.011821359 6447190
0.51184589 -0.078667805 -0.011853944 6381397
0.51353198 -0.076840773 -0.011020717 6315604
0.51327366 -0.075258821 -0.011053205 6184018
0.51496208 -0.073445886 -0.010219626 6118225
0.51470447 -0.071868636 -0.010252022 6052432
0.51639509 -0.07006982 -0.0094182752 6118225
0.51613837 -0.068497263 -0.0094505381 6052432
0.51880634 -0.066606432 -0.0081832111 5920846
0.52245158 -0.064626008 -0.0064823632 5920848
0.52707583 -0.062562965 -0.0043478217 5855055
0.53072768 -0.060622472 -0.0026461799 5986387
0.53340632 -0.058797494 -0.0013775338 5920594
0.53901762 -0.056703601 0.0011917271 10327442
0.54170197 -0.054913834 0.0024611261 11445923
0.5463438 -0.052958939 0.0045978674 10654349
0.54903358 -0.0512021 0.0058679162 10917521
0.55270398 -0.049374424 0.0075718961 14138548
0.55344123 -0.047813341 0.0079752216 13677997
0.55515838 -0.046176687 0.0088123614 13084831
0.55491811 -0.044705234 0.0087821418 12295315
0.55565768 -0.043158229 0.0091857752 11703178
0.55737835 -0.041542746 0.01002335 11571592
0.56008118 -0.039865833 0.011295036 11111041
0.55984312 -0.038408473 0.011265119 10979968
0.56156796 -0.036818836 0.01210322 11243140
0.56133074 -0.035366174 0.012073387 11572103
0.56207567 -0.033852071 0.012477651 11835275
0.56183887 -0.03240177 0.012447882 12032393
0.56160212 -0.03095144 0.012418085 12756116
0.56136525 -0.02950114 0.012388311 13215895
0.56112844 -0.028050814 0.012358511 13544860
0.5599075 -0.02665017 0.011894402 13610393
0.55770147 -0.025292162 0.010995737 13347221
0.5564785 -0.023879766 0.010531336 13149588
0.55229926 -0.022590537 0.0087633952 12886416
0.54910249 -0.021242235 0.0074295048 12689551
0.5478754 -0.019803997 0.0069646202 13150102
0.54368836 -0.01846775 0.0051956777 13545630
0.54048508 -0.017079484 0.0038609998 13545630
0.53727943 -0.015677135 0.0025260709 11505277
0.53308398 -0.014289174 0.00075606973 9136729
0.52987337 -0.012856255 -0.00057951361 11042668
0.52567226 -0.011433051 -0.0023502833 14858662
0.5204792 -0.010012504 -0.0045563341 16765887
0.51726055 -0.0085302088 -0.0058928984 16567994
0.51305008 -0.0070506069 -0.0076648183 16370869
0.50784677 -0.005566583 -0.0098721692 16436662
0.50362998 -0.0040470008 -0.011644867 14990248
0.49742863 -0.0025280376 -0.014288376 12555907
0.4922137 -0.00097352086 -0.016497208 11241855
0.48798645 0.00060953817 -0.018271247 10781304
0.48573962 0.0022167156 -0.019174971 10454140
0.48349121 0.0038332853 -0.020078951 9993589
0.48124126 0.0054592732 -0.020983066 9796723
0.4789899 0.0070946608 -0.021887397 9862516
0.47673687 0.0087394612 -0.022791989 8876645
0.47448239 0.010393652 -0.02369668 7889750
0.47421446 0.012034357 -0.023730405 8152922
0.47394654 0.013675062 -0.02376407 8152922
0.47168893 0.015348063 -0.024669239 8481887
0.47142026 0.016993487 -0.024703031 8416094
0.47115162 0.018638892 -0.02473682 8021596
0.46889088 0.02033069 -0.025642259 7561045
0.46862143 0.02198082 -0.025676178 6904400
0.46835199 0.023630906 -0.025710065 7167572
0.46808252 0.025281049 -0.025743924 6578778
0.46781313 0.026931159 -0.025777809 6381399
0.46754363 0.028581265 -0.0258117 5201247
0.46727425 0.03023139 -0.025845585 5464419
0.46700475 0.031881496 -0.025879478 6188144
0.4667353 0.03353161 -0.025913365 6056558
0.46846476 0.035093039 -0.025074741 6120542
0.47219542 0.036551677 -0.023363138 5923163
0.46992788 0.038285781 -0.024269529 6184788
0.46965995 0.039926469 -0.024303194 6316374
0.469392 0.041567195 -0.024336923 6382167
0.26156837 0.11118153 -0.11197161 6512983
0.25717592 0.11377534 -0.11376642 6578776
0.25683048 0.11589086 -0.11380986 6512985
0.2534464 0.11838623 -0.1151672 6512985
0.25309971 0.12050886 -0.1152108 6578776
0.24869859 0.1231567 -0.11700673 6512983
0.24835046 0.1252887 -0.11705052 6382167
0.2480024 0.12742063 -0.1170943 6382167
0.2476542 0.12955265 -0.11713809 6447960
0.25136679 0.13112175 -0.11542875 6447960
0.25406685 0.13281514 -0.11415741 6447960
0.25778523 0.13434896 -0.11244741 6447960
0.26353937 0.13556843 -0.1098602 6382167
0.27641505 0.13570882 -0.10420315 6447960
0.54749304 0.10406439 0.013128296 8420719
0.54929805 0.10516275 0.013976517 14342089
0.55008495 0.10642061 0.014386076 16711667
0.54985237 0.10784506 0.014356826 16711667
0.54961973 0.10926951 0.014327583 16711673
0.55142891 0.11034204 0.015176287 16711673
0.55119711 0.11176179 0.015147118 16580601
0.55198699 0.11300088 0.015557075 16580601
0.55175555 0.11441827 0.015527951 16580603
0.5515241 0.11583567 0.015498842 16580603
0.55333835 0.11687761 0.016348207 16580603
0.55310768 0.11829033 0.016319208 16580603
0.55287707 0.11970305 0.016290184 16580603
0.55264634 0.12111574 0.016261186 16580603
0.55241555 0.12252841 0.016232153 16580603
0.55218494 0.12394115 0.016203158 16580603
0.55195427 0.12535386 0.01617413 16580603
0.55172366 0.12676656 0.016145136 16580603
0.55251884 0.12797268 0.016555721 16580603
0.55228865 0.12938307 0.016526747 16580603
0.55411166 0.13037094 0.01737722 16580603
0.55388218 0.13177663 0.017348355 16580603
0.55159765 0.13361415 0.016439848 16580603
0.55033958 0.13524279 0.015971029 16580603
0.54805231 0.13709678 0.0150622 16580603
0.54679227 0.13873719 0.014593122 16580603
0.5445025 0.14060763 0.013684007 16580603
0.54118174 0.14271517 0.012334554 16580603
0.53991818 0.14437671 0.011865039 16580603
0.53762376 0.14627536 0.010955298 16580603
0.53738886 0.14771393 0.01092574 16777205
0.53715396 0.14915249 0.010896167 16777205
0.53691906 0.15059105 0.010866667 16377820
0.53668416 0.15202962 0.010837109 14075065
0.53644925 0.15346819 0.010807535 13812143
0.53827918 0.15441372 0.011658892 13285799
0.53804511 0.15584759 0.011629462 13220006
0.5409106 0.15652791 0.012921628 13351592
0.54171133 0.15770112 0.013332929 13220008
0.54768264 0.15759021 0.015947456 11443597
0.55262423 0.15770929 0.018121898 8550508
0.51465112 -0.083187409 -0.012491536 6382167
0.51439279 -0.081605457 -0.012524025 6447190
0.516078 -0.079773642 -0.011686095 6315604
0.51582038 -0.078196421 -0.011718489 6315604
0.51750773 -0.07637874 -0.010880338 6315604
0.52016944 -0.074452564 -0.009606597 6315604
0.51991385 -0.072887063 -0.009638777 6184018
0.52160531 -0.071095251 -0.0088000381 6052432
0.52135044 -0.069534443 -0.0088320924 6052432
0.52109563 -0.067973644 -0.0088641439 6052432
0.5247398 -0.065988384 -0.0071539204 5986639
0.52741194 -0.064125694 -0.005878875 5920848
0.53301281 -0.06197286 -0.0032965261 5986641
0.53569067 -0.06014543 -0.002020787 5986387
0.53934711 -0.058235392 -0.00030898885 5920594
0.54202986 -0.056438524 0.00096737489 10195858
0.54471505 -0.054655746 0.0022440462 9998479
0.54837996 -0.052797396 0.0039569386 9864063
0.55302566 -0.050870571 0.0061061592 12824748
0.5557189 -0.049137153 0.0073837847 14336442
0.55547863 -0.047665682 0.0073535652 13481133
0.55621743 -0.046113938 0.0077594738 12821659
0.55597746 -0.044644833 0.0077293143 11966350
0.55769706 -0.0430246 0.0085715652 11308420
0.55941808 -0.041413758 0.0094139902 11374726
0.56016034 -0.039883189 0.0098203039 11308933
0.56188411 -0.038288817 0.010663083 11045761
0.56164694 -0.036836129 0.010633253 11374726
0.56140965 -0.035383474 0.010603416 11637896
0.56117249 -0.033930812 0.010573583 12493205
0.56191772 -0.032419041 0.010980309 13085081
0.56168097 -0.030968713 0.010950497 13348253
